lon	lat	ctd
111.5	31.5	33.2126
111.5	32.5	30.5956
111.5	33.5	35.1115
111.5	34.5	40.6747
111.5	35.5	43.4954
111.5	36.5	41.2685
111.5	37.5	39.7358
111.5	38.5	36.3423
111.5	39.5	30.2017
111.5	40.5	25.9674
111.5	41.5	23.1583
111.5	42.5	24.8021
111.5	43.5	28.634
111.5	44.5	27.8986
111.5	45.5	29.6669
111.5	46.5	31.2038
111.5	47.5	31.8041
111.5	48.5	27.8506
111.5	49.5	26.1709
111.5	50.5	29.0281
111.5	51.5	38.3391
111.5	52.5	39.8118
111.5	53.5	33.9618
111.5	54.5	27.1961
111.5	55.5	27.8575
111.5	56.5	29.5288
111.5	57.5	32.5209
111.5	58.5	36.4354
111.5	59.5	40.5934
111.5	60.5	44.5045
111.5	61.5	47.6575
111.5	62.5	51.6086
111.5	63.5	54.9067
111.5	64.5	52.7388
111.5	65.5	46.7913
111.5	66.5	41.117
111.5	67.5	45.9753
111.5	68.5	45.5405
111.5	69.5	41.1225
111.5	70.5	36.3575
111.5	71.5	37.4171
111.5	72.5	41.7966
111.5	73.5	39.8672
111.5	75.5	27.6365
111.5	76.5	22.8851
112.5	-88.5	38.9453
112.5	-87.5	39.775
112.5	-86.5	44.5038
112.5	-85.5	46.6964
112.5	-84.5	47.0432
112.5	-83.5	46.8029
112.5	-82.5	43.3348
112.5	-81.5	39.9058
112.5	-80.5	37.4116
112.5	-79.5	36.6303
112.5	-78.5	35.4422
112.5	-77.5	34.8741
112.5	-76.5	35.2133
112.5	-75.5	36.943
112.5	-74.5	38.8951
112.5	-73.5	31.6417
112.5	-72.5	26.9672
112.5	-71.5	29.7927
112.5	-70.5	32.4541
112.5	-69.5	30.1445
112.5	-68.5	28.3311
112.5	-67.5	28.6881
112.5	-66.5	31.1386
112.5	-7.5	31.2366
112.5	-2.5	24.6665
112.5	-1.5	37.2184
112.5	-0.5	30.5537
112.5	0.5	20.1436
112.5	1.5	18.4088
112.5	2.5	20.2842
112.5	22.5	29.1427
112.5	23.5	33.0816
112.5	24.5	35.8625
112.5	25.5	32.7379
112.5	26.5	30.5736
112.5	27.5	32.0496
112.5	28.5	31.0391
112.5	29.5	32.4518
112.5	30.5	33.8062
112.5	31.5	33.5116
112.5	32.5	32.4428
112.5	33.5	34.6693
112.5	34.5	39.0271
112.5	35.5	39.6152
112.5	36.5	39.1845
112.5	37.5	38.4249
112.5	38.5	37.397
112.5	39.5	30.901
112.5	40.5	26.193
112.5	41.5	24.6632
112.5	42.5	25.0856
112.5	43.5	28.3078
112.5	44.5	30.2583
112.5	45.5	31.6904
112.5	46.5	32.4837
112.5	47.5	33.361
112.5	48.5	30.4629
112.5	49.5	27.6312
112.5	50.5	27.2422
112.5	51.5	35.6249
112.5	52.5	37.2857
112.5	53.5	33.595
112.5	54.5	27.6532
112.5	55.5	27.4593
112.5	56.5	28.72
112.5	57.5	30.3843
112.5	58.5	34.4171
112.5	59.5	39.4694
112.5	60.5	44.5058
112.5	61.5	48.8467
112.5	62.5	53.189
112.5	63.5	56.3644
112.5	64.5	54.9249
112.5	65.5	47.9208
112.5	66.5	45.8731
112.5	67.5	47.8272
112.5	68.5	46.2663
112.5	69.5	40.2686
112.5	70.5	35.4701
112.5	71.5	37.5489
112.5	72.5	41.9284
112.5	73.5	36.7631
112.5	75.5	26.183
113.5	-88.5	39.0193
113.5	-87.5	39.1182
113.5	-86.5	43.8469
113.5	-85.5	47.2622
113.5	-84.5	47.6089
113.5	-83.5	46.467
113.5	-82.5	43.6898
113.5	-81.5	40.0968
113.5	-80.5	36.6679
113.5	-79.5	35.3952
113.5	-78.5	34.6139
113.5	-77.5	35.1723
113.5	-76.5	35.6568
113.5	-75.5	36.8541
113.5	-74.5	38.7719
113.5	-73.5	33.8378
113.5	-72.5	26.8108
113.5	-71.5	29.3322
113.5	-70.5	33.4577
113.5	-69.5	31.588
113.5	-68.5	29.6034
113.5	-67.5	32.4665
113.5	-66.5	29.3483
113.5	-26.5	29.785
113.5	-2.5	26.8794
113.5	-1.5	29.8756
113.5	-0.5	25.2384
113.5	0.5	20.5652
113.5	1.5	20.0999
113.5	2.5	17.7547
113.5	3.5	16.6697
113.5	22.5	28.3529
113.5	23.5	30.6535
113.5	24.5	33.2098
113.5	25.5	32.1442
113.5	26.5	30.3051
113.5	27.5	31.2729
113.5	28.5	30.0161
113.5	29.5	30.7738
113.5	30.5	33.4876
113.5	31.5	36.029
113.5	32.5	36.0699
113.5	33.5	36.1603
113.5	34.5	37.2026
113.5	35.5	38.3587
113.5	36.5	39.0332
113.5	37.5	37.4512
113.5	38.5	37.4679
113.5	39.5	32.2336
113.5	40.5	28.5824
113.5	41.5	26.6076
113.5	42.5	25.9458
113.5	43.5	28.6585
113.5	44.5	31.0954
113.5	45.5	32.7477
113.5	46.5	33.337
113.5	47.5	34.5198
113.5	48.5	33.4596
113.5	49.5	29.7974
113.5	50.5	26.7746
113.5	51.5	32.2015
113.5	52.5	34.1082
113.5	53.5	35.1126
113.5	54.5	29.4654
113.5	55.5	27.7903
113.5	56.5	27.116
113.5	57.5	28.2478
113.5	58.5	31.8911
113.5	59.5	36.9239
113.5	60.5	42.1874
113.5	61.5	47.9241
113.5	62.5	53.1297
113.5	63.5	57.4006
113.5	64.5	56.0183
113.5	65.5	48.5385
113.5	66.5	48.1888
113.5	67.5	46.968
113.5	68.5	47.4081
113.5	69.5	39.0546
113.5	70.5	34.6959
113.5	71.5	38.427
113.5	72.5	40.5334
113.5	73.5	34.951
113.5	75.5	26.2115
114.5	-88.5	39.0933
114.5	-87.5	38.4613
114.5	-86.5	43.1901
114.5	-85.5	47.828
114.5	-84.5	47.9419
114.5	-83.5	46.0672
114.5	-82.5	44.1925
114.5	-81.5	40.5766
114.5	-80.5	36.9343
114.5	-79.5	34.16
114.5	-78.5	34.6022
114.5	-77.5	35.4034
114.5	-76.5	36.1004
114.5	-75.5	37.0043
114.5	-74.5	38.6445
114.5	-73.5	36.6472
114.5	-72.5	30.9333
114.5	-71.5	29.1192
114.5	-70.5	33.1553
114.5	-69.5	33.0393
114.5	-68.5	30.8757
114.5	-67.5	34.6174
114.5	-66.5	35.1574
114.5	-27.5	28.9297
114.5	-26.5	29.6316
114.5	-25.5	30.8343
114.5	-24.5	30.4487
114.5	-23.5	28.4488
114.5	-22.5	26.4777
114.5	-3.5	24.3247
114.5	-2.5	33.0205
114.5	-1.5	31.1481
114.5	-0.5	24.2988
114.5	0.5	20.1155
114.5	1.5	18.7076
114.5	2.5	13.9542
114.5	3.5	16.2916
114.5	4.5	14.4453
114.5	23.5	29.0867
114.5	24.5	31.5473
114.5	25.5	32.4586
114.5	26.5	30.6642
114.5	27.5	31.5558
114.5	28.5	29.7411
114.5	29.5	31.031
114.5	30.5	36.4673
114.5	31.5	38.5262
114.5	32.5	35.1208
114.5	33.5	32.7783
114.5	34.5	35.8862
114.5	35.5	38.8676
114.5	36.5	38.2336
114.5	37.5	35.4388
114.5	38.5	34.9393
114.5	39.5	32.1265
114.5	40.5	30.3678
114.5	41.5	28.7931
114.5	42.5	27.495
114.5	43.5	28.8602
114.5	44.5	31.8325
114.5	45.5	33.7061
114.5	46.5	33.0714
114.5	47.5	34.037
114.5	48.5	34.6205
114.5	49.5	30.6796
114.5	50.5	26.91
114.5	51.5	28.5112
114.5	52.5	32.597
114.5	53.5	36.7433
114.5	54.5	33.136
114.5	55.5	31.286
114.5	56.5	27.5227
114.5	57.5	26.6688
114.5	58.5	29.656
114.5	59.5	34.4791
114.5	60.5	40.0595
114.5	61.5	46.4733
114.5	62.5	50.304
114.5	63.5	54.2686
114.5	64.5	51.3651
114.5	65.5	48.591
114.5	66.5	46.1524
114.5	67.5	47.0521
114.5	68.5	48.5499
114.5	69.5	38.3733
114.5	70.5	35.6528
114.5	71.5	38.1497
114.5	72.5	35.8476
114.5	73.5	32.2242
115.5	-88.5	39.1673
115.5	-87.5	37.8712
115.5	-86.5	42.5332
115.5	-85.5	47.262
115.5	-84.5	47.5421
115.5	-83.5	45.6674
115.5	-82.5	43.7927
115.5	-81.5	41.1059
115.5	-80.5	37.4635
115.5	-79.5	34.7758
115.5	-78.5	34.4231
115.5	-77.5	35.4878
115.5	-76.5	36.3606
115.5	-75.5	37.1545
115.5	-74.5	38.2927
115.5	-73.5	38.3416
115.5	-72.5	34.5531
115.5	-71.5	29.3419
115.5	-70.5	32.9514
115.5	-69.5	34.4905
115.5	-68.5	32.2117
115.5	-67.5	33.0296
115.5	-66.5	34.1913
115.5	-30.5	39.373
115.5	-29.5	39.6209
115.5	-28.5	38.5982
115.5	-27.5	38.1567
115.5	-26.5	40.4891
115.5	-25.5	35.105
115.5	-24.5	38.8855
115.5	-23.5	40.0668
115.5	-22.5	34.2191
115.5	-21.5	32.0121
115.5	-8.5	38.0065
115.5	-3.5	29.0889
115.5	-2.5	37.1726
115.5	-1.5	32.03
115.5	-0.5	26.0799
115.5	0.5	22.259
115.5	1.5	19.8272
115.5	2.5	15.3203
115.5	3.5	18.1221
115.5	4.5	17.9242
115.5	23.5	29.3758
115.5	24.5	30.9447
115.5	25.5	31.4611
115.5	26.5	28.8679
115.5	27.5	30.6563
115.5	28.5	32.4961
115.5	29.5	33.4197
115.5	30.5	38.428
115.5	31.5	32.2724
115.5	32.5	29.283
115.5	33.5	29.6265
115.5	34.5	35.6368
115.5	35.5	38.7803
115.5	36.5	38.6846
115.5	37.5	34.3532
115.5	38.5	33.6537
115.5	39.5	33.1354
115.5	40.5	32.1468
115.5	41.5	31.5027
115.5	42.5	28.2063
115.5	43.5	28.3958
115.5	44.5	30.9048
115.5	45.5	34.3526
115.5	46.5	33.6706
115.5	47.5	34.3863
115.5	48.5	35.6684
115.5	49.5	31.734
115.5	50.5	28.4557
115.5	51.5	29.2668
115.5	52.5	31.6871
115.5	53.5	36.4656
115.5	54.5	36.2717
115.5	55.5	32.6959
115.5	56.5	28.2375
115.5	57.5	26.24
115.5	58.5	28.7592
115.5	59.5	33.1003
115.5	60.5	38.3617
115.5	61.5	44.9353
115.5	62.5	47.4783
115.5	63.5	48.9301
115.5	64.5	47.8783
115.5	65.5	46.6907
115.5	66.5	45.322
115.5	67.5	48.0728
115.5	68.5	48.1235
115.5	69.5	37.6921
115.5	70.5	35.2498
115.5	71.5	34.7852
115.5	72.5	31.8777
115.5	73.5	30.9959
116.5	-88.5	39.2413
116.5	-87.5	37.9452
116.5	-86.5	41.8764
116.5	-85.5	46.6052
116.5	-84.5	47.3273
116.5	-83.5	45.3257
116.5	-82.5	43.3928
116.5	-81.5	41.5181
116.5	-80.5	38.2888
116.5	-79.5	36.5359
116.5	-78.5	34.7831
116.5	-77.5	34.6818
116.5	-76.5	35.7465
116.5	-75.5	37.118
116.5	-74.5	37.319
116.5	-73.5	37.9088
116.5	-72.5	35.1621
116.5	-71.5	31.8591
116.5	-70.5	34.0066
116.5	-69.5	35.6411
116.5	-68.5	32.8983
116.5	-67.5	30.0079
116.5	-66.5	29.7281
116.5	-34.5	22.0738
116.5	-33.5	30.4793
116.5	-32.5	30.8447
116.5	-31.5	34.6793
116.5	-30.5	39.9938
116.5	-29.5	41.6113
116.5	-28.5	41.5474
116.5	-27.5	42.2063
116.5	-26.5	42.1519
116.5	-25.5	37.3261
116.5	-24.5	42.7993
116.5	-23.5	45.1318
116.5	-22.5	41.3288
116.5	-21.5	31.9476
116.5	-8.5	37.3251
116.5	-2.5	37.4112
116.5	-1.5	33.789
116.5	-0.5	29.4305
116.5	0.5	28.9453
116.5	1.5	26.8662
116.5	2.5	20.7028
116.5	3.5	27.713
116.5	4.5	25.2887
116.5	5.5	21.2969
116.5	23.5	30.6655
116.5	24.5	30.1604
116.5	25.5	29.4038
116.5	26.5	28.7494
116.5	27.5	29.5473
116.5	28.5	31.5917
116.5	29.5	35.6234
116.5	30.5	39.2744
116.5	31.5	33.0949
116.5	32.5	25.9782
116.5	33.5	25.2272
116.5	34.5	33.4843
116.5	35.5	38.3022
116.5	36.5	38.6847
116.5	37.5	34.1031
116.5	38.5	33.748
116.5	39.5	32.9837
116.5	40.5	31.1222
116.5	41.5	32.9736
116.5	42.5	30.3035
116.5	43.5	29.2506
116.5	44.5	30.4114
116.5	45.5	35.0704
116.5	46.5	35.5711
116.5	47.5	35.969
116.5	48.5	35.5335
116.5	49.5	32.607
116.5	50.5	30.49
116.5	51.5	28.8711
116.5	52.5	30.5044
116.5	53.5	35.5993
116.5	54.5	36.1935
116.5	55.5	33.5163
116.5	56.5	28.3219
116.5	57.5	25.9539
116.5	58.5	27.8874
116.5	59.5	31.922
116.5	60.5	36.5008
116.5	61.5	41.5921
116.5	62.5	44.1647
116.5	63.5	46.5239
116.5	64.5	47.1506
116.5	65.5	46.3406
116.5	66.5	47.0411
116.5	67.5	48.2704
116.5	68.5	42.5533
116.5	69.5	35.2698
116.5	70.5	33.8534
116.5	71.5	33.0574
116.5	72.5	32.1948
116.5	73.5	31.2585
117.5	-88.5	39.3153
117.5	-87.5	38.0192
117.5	-86.5	41.2196
117.5	-85.5	45.7616
117.5	-84.5	46.4812
117.5	-83.5	45.3016
117.5	-82.5	43.3
117.5	-81.5	41.2984
117.5	-80.5	39.1228
117.5	-79.5	37.8358
117.5	-78.5	36.5432
117.5	-77.5	34.7903
117.5	-76.5	35.1597
117.5	-75.5	36.9141
117.5	-74.5	37.6275
117.5	-73.5	37.2478
117.5	-72.5	36.0438
117.5	-71.5	35.2443
117.5	-70.5	35.941
117.5	-69.5	36.985
117.5	-68.5	33.8705
117.5	-67.5	31.0551
117.5	-34.5	27.9838
117.5	-33.5	34.6249
117.5	-32.5	31.6911
117.5	-31.5	34.2341
117.5	-30.5	37.4048
117.5	-29.5	38.7013
117.5	-28.5	35.0031
117.5	-27.5	35.9983
117.5	-26.5	37.7016
117.5	-25.5	36.3486
117.5	-24.5	40.9216
117.5	-23.5	41.2529
117.5	-22.5	35.5992
117.5	-21.5	22.8518
117.5	-8.5	35.9699
117.5	0.5	35.2079
117.5	1.5	30.2366
117.5	2.5	30.0356
117.5	3.5	30.8663
117.5	4.5	33.8767
117.5	5.5	28.7848
117.5	6.5	26.125
117.5	24.5	34.1588
117.5	25.5	32.4723
117.5	26.5	30.6227
117.5	27.5	30.5452
117.5	28.5	32.8192
117.5	29.5	38.2241
117.5	30.5	37.6959
117.5	31.5	31.2826
117.5	32.5	23.8998
117.5	33.5	25.1146
117.5	34.5	32.1071
117.5	35.5	37.2717
117.5	36.5	38.1081
117.5	37.5	40.1205
117.5	38.5	39.6303
117.5	39.5	34.9189
117.5	40.5	30.6031
117.5	41.5	34.4429
117.5	42.5	34.309
117.5	43.5	32.9205
117.5	44.5	31.6142
117.5	45.5	36.2416
117.5	46.5	37.9878
117.5	47.5	36.6425
117.5	48.5	35.0805
117.5	49.5	35.2242
117.5	50.5	33.6195
117.5	51.5	31.3788
117.5	52.5	29.0717
117.5	53.5	34.4246
117.5	54.5	36.2893
117.5	55.5	34.1726
117.5	56.5	28.429
117.5	57.5	27.393
117.5	58.5	29.2021
117.5	59.5	31.0636
117.5	60.5	34.6398
117.5	61.5	38.9315
117.5	62.5	43.2188
117.5	63.5	44.402
117.5	64.5	45.674
117.5	65.5	46.8605
117.5	66.5	46.641
117.5	67.5	45.7216
117.5	68.5	39.0096
117.5	69.5	35.4328
117.5	70.5	34.0442
117.5	71.5	33.2644
117.5	72.5	32.5012
117.5	73.5	31.219
118.5	-88.5	39.3894
118.5	-87.5	38.0932
118.5	-86.5	40.5627
118.5	-85.5	44.2081
118.5	-84.5	44.9276
118.5	-83.5	45.2774
118.5	-82.5	43.2758
118.5	-81.5	41.1253
118.5	-80.5	38.3828
118.5	-79.5	36.0651
118.5	-78.5	34.7781
118.5	-77.5	33.6124
118.5	-76.5	35.0931
118.5	-75.5	36.7101
118.5	-74.5	38.1244
118.5	-73.5	37.7447
118.5	-72.5	37.7644
118.5	-71.5	38.6295
118.5	-70.5	37.8755
118.5	-69.5	38.3088
118.5	-68.5	35.2893
118.5	-67.5	32.0711
118.5	-34.5	32.8022
118.5	-33.5	39.2064
118.5	-32.5	34.1821
118.5	-31.5	34.5281
118.5	-30.5	35.3281
118.5	-29.5	36.0195
118.5	-28.5	28.529
118.5	-27.5	31.4257
118.5	-26.5	35.0198
118.5	-25.5	37.0109
118.5	-24.5	40.6873
118.5	-23.5	38.3781
118.5	-22.5	32.8804
118.5	-21.5	25.5232
118.5	-20.5	26.4751
118.5	-8.5	41.828
118.5	4.5	33.217
118.5	5.5	33.4104
118.5	9.5	10.9188
118.5	25.5	35.2028
118.5	26.5	36.8449
118.5	27.5	35.2315
118.5	28.5	32.0102
118.5	29.5	34.1454
118.5	30.5	33.9246
118.5	31.5	30.0711
118.5	32.5	23.0062
118.5	33.5	25.6151
118.5	34.5	30.7172
118.5	35.5	35.186
118.5	36.5	35.5628
118.5	37.5	42.0768
118.5	39.5	37.5171
118.5	40.5	31.1506
118.5	41.5	34.9139
118.5	42.5	36.5908
118.5	43.5	34.1346
118.5	44.5	33.0355
118.5	45.5	38.2159
118.5	46.5	40.8595
118.5	47.5	39.7855
118.5	48.5	37.3251
118.5	49.5	37.6689
118.5	50.5	36.7279
118.5	51.5	34.0696
118.5	52.5	27.9058
118.5	53.5	32.1759
118.5	54.5	35.278
118.5	55.5	35.0123
118.5	56.5	28.9056
118.5	57.5	30.1666
118.5	58.5	32.2232
118.5	59.5	34.9206
118.5	60.5	36.8488
118.5	61.5	39.2135
118.5	62.5	41.1714
118.5	63.5	42.5001
118.5	64.5	43.7429
118.5	65.5	45.3663
118.5	66.5	44.2768
118.5	67.5	42.7561
118.5	68.5	38.6343
118.5	69.5	35.7391
118.5	70.5	34.235
118.5	71.5	33.4714
118.5	72.5	33.229
118.5	73.5	30.165
119.5	-88.5	39.4634
119.5	-87.5	38.1673
119.5	-86.5	39.9059
119.5	-85.5	42.6546
119.5	-84.5	43.3741
119.5	-83.5	44.0937
119.5	-82.5	43.2516
119.5	-81.5	40.7616
119.5	-80.5	38.019
119.5	-79.5	35.2765
119.5	-78.5	33.0074
119.5	-77.5	33.7328
119.5	-76.5	35.188
119.5	-75.5	36.7399
119.5	-74.5	38.2979
119.5	-73.5	38.5898
119.5	-72.5	38.6182
119.5	-71.5	39.39
119.5	-70.5	41.1767
119.5	-69.5	39.5849
119.5	-68.5	35.9798
119.5	-67.5	32.8694
119.5	-33.5	33.082
119.5	-32.5	32.798
119.5	-31.5	34.528
119.5	-30.5	35.1771
119.5	-29.5	34.6777
119.5	-28.5	30.1159
119.5	-27.5	32.6664
119.5	-26.5	38.63
119.5	-25.5	43.3878
119.5	-24.5	43.7808
119.5	-23.5	41.5952
119.5	-22.5	35.6566
119.5	-21.5	31.0784
119.5	-20.5	35.0994
119.5	-9.5	42.0253
119.5	-5.5	28.6545
119.5	-3.5	27.1545
119.5	-2.5	38.5052
119.5	-1.5	41.3671
119.5	10.5	5.544
119.5	26.5	35.3958
119.5	27.5	38.1006
119.5	28.5	33.8502
119.5	29.5	33.0133
119.5	30.5	32.3548
119.5	31.5	29.7882
119.5	32.5	22.2918
119.5	33.5	25.7737
119.5	34.5	29.6882
119.5	35.5	32.081
119.5	36.5	31.22
119.5	40.5	31.7628
119.5	41.5	35.8151
119.5	42.5	37.702
119.5	43.5	34.8372
119.5	44.5	30.3126
119.5	45.5	34.7116
119.5	46.5	40.2254
119.5	47.5	42.726
119.5	48.5	40.0143
119.5	49.5	39.9474
119.5	50.5	39.441
119.5	51.5	35.1831
119.5	52.5	27.7458
119.5	53.5	30.1889
119.5	54.5	34.4637
119.5	55.5	36.4308
119.5	56.5	31.0324
119.5	57.5	32.5271
119.5	58.5	35.9495
119.5	59.5	38.7776
119.5	60.5	40.3955
119.5	61.5	40.4386
119.5	62.5	40.6174
119.5	63.5	41.1376
119.5	64.5	42.8214
119.5	65.5	43.1377
119.5	66.5	45.1513
119.5	67.5	42.5287
119.5	68.5	38.2055
119.5	69.5	36.0449
119.5	70.5	34.4579
119.5	71.5	34.7993
119.5	72.5	33.1612
120.5	-88.5	39.5374
120.5	-87.5	38.2413
120.5	-86.5	39.2491
120.5	-85.5	41.101
120.5	-84.5	41.8206
120.5	-83.5	42.5402
120.5	-82.5	43.1605
120.5	-81.5	40.4304
120.5	-80.5	37.7055
120.5	-79.5	34.9806
120.5	-78.5	33.4219
120.5	-77.5	33.9215
120.5	-76.5	35.3083
120.5	-75.5	36.8286
120.5	-74.5	38.3989
120.5	-73.5	39.3718
120.5	-72.5	39.4231
120.5	-71.5	39.5562
120.5	-70.5	39.7945
120.5	-69.5	39.3552
120.5	-68.5	35.8011
120.5	-67.5	32.8923
120.5	-33.5	27.313
120.5	-32.5	26.3265
120.5	-31.5	30.0132
120.5	-30.5	33.0355
120.5	-29.5	32.7057
120.5	-28.5	29.4591
120.5	-27.5	35.077
120.5	-26.5	41.3628
120.5	-25.5	47.2892
120.5	-24.5	49.94
120.5	-23.5	44.6069
120.5	-22.5	39.5938
120.5	-21.5	36.8584
120.5	-20.5	36.8188
120.5	-8.5	35.9951
120.5	-2.5	18.6808
120.5	-1.5	28.5618
120.5	0.5	25.0291
120.5	14.5	25.1003
120.5	15.5	34.9453
120.5	16.5	43.3022
120.5	17.5	34.9534
120.5	22.5	18.2606
120.5	23.5	20.1482
120.5	27.5	35.7579
120.5	28.5	35.0652
120.5	29.5	33.8238
120.5	30.5	32.9302
120.5	31.5	30.5046
120.5	32.5	23.5837
120.5	33.5	25.6006
120.5	36.5	28.6192
120.5	37.5	31.9849
120.5	40.5	33.286
120.5	41.5	34.5578
120.5	42.5	35.1407
120.5	43.5	32.9619
120.5	44.5	27.6186
120.5	45.5	30.2338
120.5	46.5	36.3725
120.5	47.5	44.2022
120.5	48.5	42.6406
120.5	49.5	42.8018
120.5	50.5	41.6004
120.5	51.5	37.0385
120.5	52.5	30.0129
120.5	53.5	31.0462
120.5	54.5	34.4092
120.5	55.5	37.8494
120.5	56.5	33.581
120.5	57.5	35.336
120.5	58.5	40.7174
120.5	59.5	41.6311
120.5	60.5	40.5307
120.5	61.5	40.9844
120.5	62.5	42.2586
120.5	63.5	42.816
120.5	64.5	43.164
120.5	65.5	45.399
120.5	66.5	46.4945
120.5	67.5	42.0541
120.5	68.5	38.4662
120.5	69.5	35.5782
120.5	70.5	34.4877
120.5	71.5	35.8547
120.5	72.5	32.3234
121.5	-88.5	39.6114
121.5	-87.5	38.3153
121.5	-86.5	38.5922
121.5	-85.5	39.5475
121.5	-84.5	40.6867
121.5	-83.5	42.8722
121.5	-82.5	43.048
121.5	-81.5	40.2225
121.5	-80.5	37.4753
121.5	-79.5	34.7504
121.5	-78.5	35.119
121.5	-77.5	35.78
121.5	-76.5	36.1648
121.5	-75.5	36.9242
121.5	-74.5	38.5028
121.5	-73.5	40.0815
121.5	-72.5	40.1917
121.5	-71.5	40.5194
121.5	-70.5	38.5265
121.5	-69.5	38.7579
121.5	-68.5	35.5173
121.5	-67.5	32.2517
121.5	-33.5	25.0849
121.5	-32.5	23.0684
121.5	-31.5	25.2532
121.5	-30.5	27.6944
121.5	-29.5	28.311
121.5	-28.5	28.5284
121.5	-27.5	35.9887
121.5	-26.5	43.0886
121.5	-25.5	48.0456
121.5	-24.5	49.8598
121.5	-23.5	44.3072
121.5	-22.5	36.9229
121.5	-21.5	33.7138
121.5	-20.5	34.7903
121.5	-19.5	32.9728
121.5	-3.5	6.2883
121.5	-2.5	13.1047
121.5	-1.5	25.0269
121.5	0.5	31.1632
121.5	12.5	9.5786
121.5	14.5	23.6779
121.5	15.5	33.7423
121.5	16.5	40.3285
121.5	17.5	41.6576
121.5	23.5	21.4065
121.5	24.5	20.5373
121.5	28.5	35.3426
121.5	29.5	33.6115
121.5	39.5	34.3147
121.5	41.5	34.1885
121.5	42.5	33.1557
121.5	43.5	30.0967
121.5	44.5	27.1397
121.5	45.5	29.4097
121.5	46.5	35.2832
121.5	47.5	44.7812
121.5	48.5	46.4857
121.5	49.5	46.4437
121.5	50.5	44.6414
121.5	51.5	39.684
121.5	52.5	32.4331
121.5	53.5	30.9413
121.5	54.5	33.6106
121.5	55.5	37.1656
121.5	56.5	34.7914
121.5	57.5	39.7292
121.5	58.5	45.5109
121.5	59.5	44.3241
121.5	60.5	43.5332
121.5	61.5	43.7005
121.5	62.5	44.0913
121.5	63.5	44.3969
121.5	64.5	45.6393
121.5	65.5	47.1048
121.5	66.5	45.1796
121.5	67.5	41.368
121.5	68.5	37.3783
121.5	69.5	32.4221
121.5	70.5	33.9456
121.5	71.5	34.5814
121.5	72.5	30.8534
122.5	-88.5	39.6854
122.5	-87.5	38.3893
122.5	-86.5	37.7062
122.5	-85.5	39.8917
122.5	-84.5	42.0772
122.5	-83.5	44.2627
122.5	-82.5	42.9356
122.5	-81.5	40.11
122.5	-80.5	37.2844
122.5	-79.5	35.8803
122.5	-78.5	36.8161
122.5	-77.5	37.6385
122.5	-76.5	38.0233
122.5	-75.5	37.1263
122.5	-74.5	38.5423
122.5	-73.5	40.1538
122.5	-72.5	41.1548
122.5	-71.5	41.4825
122.5	-70.5	40.6969
122.5	-69.5	37.3897
122.5	-68.5	35.0393
122.5	-67.5	33.93
122.5	-66.5	27.8298
122.5	-33.5	24.176
122.5	-32.5	21.4805
122.5	-31.5	24.2777
122.5	-30.5	24.1875
122.5	-29.5	26.5107
122.5	-28.5	30.6949
122.5	-27.5	38.542
122.5	-26.5	44.081
122.5	-25.5	48.2631
122.5	-24.5	48.4524
122.5	-23.5	43.5453
122.5	-22.5	34.6457
122.5	-21.5	30.9881
122.5	-20.5	31.7963
122.5	-19.5	30.6865
122.5	-18.5	27.4934
122.5	-17.5	24.4212
122.5	-8.5	33.3212
122.5	-5.5	11.875
122.5	-4.5	12.13
122.5	0.5	32.0555
122.5	11.5	19.5517
122.5	13.5	15.4002
122.5	39.5	32.6556
122.5	40.5	34.9214
122.5	41.5	35.3466
122.5	42.5	33.9187
122.5	43.5	31.4267
122.5	44.5	28.4366
122.5	45.5	27.7076
122.5	46.5	32.7252
122.5	47.5	39.6009
122.5	48.5	43.8303
122.5	49.5	46.9889
122.5	50.5	47.7296
122.5	51.5	43.3583
122.5	52.5	35.742
122.5	53.5	30.7299
122.5	54.5	32.6204
122.5	55.5	36.2812
122.5	56.5	39.0258
122.5	57.5	45.8179
122.5	58.5	49.2217
122.5	59.5	47.654
122.5	60.5	46.5201
122.5	61.5	43.0347
122.5	62.5	44.0569
122.5	63.5	45.8391
122.5	64.5	45.1514
122.5	65.5	44.2324
122.5	66.5	41.5945
122.5	67.5	39.7115
122.5	68.5	34.0576
122.5	69.5	31.8351
122.5	70.5	34.9426
122.5	71.5	33.3081
122.5	72.5	29.5801
123.5	-88.5	39.7594
123.5	-87.5	38.4633
123.5	-86.5	37.9162
123.5	-85.5	41.2822
123.5	-84.5	43.4677
123.5	-83.5	45.6487
123.5	-82.5	42.8231
123.5	-81.5	39.9975
123.5	-80.5	38.324
123.5	-79.5	37.4863
123.5	-78.5	38.49
123.5	-77.5	39.4491
123.5	-76.5	39.1435
123.5	-75.5	38.1602
123.5	-74.5	38.5393
123.5	-73.5	40.3426
123.5	-72.5	42.4603
123.5	-71.5	42.6596
123.5	-70.5	42.7733
123.5	-69.5	39.2165
123.5	-68.5	36.2455
123.5	-67.5	37.2319
123.5	-33.5	25.4789
123.5	-32.5	23.3147
123.5	-31.5	25.968
123.5	-30.5	27.5043
123.5	-29.5	29.8445
123.5	-28.5	34.2828
123.5	-27.5	43.4902
123.5	-26.5	47.0548
123.5	-25.5	46.6802
123.5	-24.5	45.2292
123.5	-23.5	39.7197
123.5	-22.5	35.2069
123.5	-21.5	31.9149
123.5	-20.5	31.7041
123.5	-19.5	33.081
123.5	-18.5	28.8687
123.5	-17.5	26.785
123.5	0.5	27.4995
123.5	8.5	28.3407
123.5	13.5	16.6873
123.5	40.5	33.1234
123.5	41.5	35.9771
123.5	42.5	35.1248
123.5	43.5	34.0812
123.5	44.5	30.9526
123.5	45.5	29.5404
123.5	46.5	29.4763
123.5	47.5	34.4684
123.5	48.5	38.3556
123.5	49.5	41.5069
123.5	50.5	44.9683
123.5	51.5	44.5285
123.5	52.5	36.8539
123.5	53.5	30.8551
123.5	54.5	29.5741
123.5	55.5	34.7604
123.5	56.5	45.1742
123.5	57.5	51.4907
123.5	58.5	54.2235
123.5	59.5	50.5952
123.5	60.5	43.592
123.5	61.5	41.8473
123.5	62.5	45.2974
123.5	63.5	45.7166
123.5	64.5	43.3655
123.5	65.5	42.0506
123.5	66.5	41.5054
123.5	67.5	37.2864
123.5	68.5	32.1518
123.5	69.5	33.2227
123.5	70.5	35.7627
123.5	71.5	33.3475
123.5	72.5	31.8149
123.5	73.5	30.6066
124.5	-88.5	39.2575
124.5	-87.5	38.5373
124.5	-86.5	38.1938
124.5	-85.5	41.5775
124.5	-84.5	44.8581
124.5	-83.5	45.5362
124.5	-82.5	43.2466
124.5	-81.5	41.8647
124.5	-80.5	40.5012
124.5	-79.5	39.2329
124.5	-78.5	40.046
124.5	-77.5	40.8478
124.5	-76.5	39.6206
124.5	-75.5	38.9931
124.5	-74.5	38.5543
124.5	-73.5	40.672
124.5	-72.5	42.8021
124.5	-71.5	43.5691
124.5	-70.5	41.7093
124.5	-69.5	39.7971
124.5	-68.5	36.1285
124.5	-67.5	36.6805
124.5	-32.5	28.2746
124.5	-31.5	32.3829
124.5	-30.5	33.9795
124.5	-29.5	34.1717
124.5	-28.5	38.0249
124.5	-27.5	45.6095
124.5	-26.5	49.1099
124.5	-25.5	45.2819
124.5	-24.5	38.5327
124.5	-23.5	33.3354
124.5	-22.5	29.456
124.5	-21.5	29.1946
124.5	-20.5	30.8722
124.5	-19.5	31.8785
124.5	-18.5	28.76
124.5	-17.5	24.4423
124.5	-16.5	20.8044
124.5	-9.5	29.8006
124.5	6.5	37.6978
124.5	7.5	35.4262
124.5	40.5	32.5401
124.5	41.5	36.9094
124.5	42.5	36.4264
124.5	43.5	35.5675
124.5	44.5	32.9777
124.5	45.5	29.34
124.5	46.5	26.5944
124.5	47.5	29.8206
124.5	48.5	32.8048
124.5	49.5	36.83
124.5	50.5	40.5472
124.5	51.5	40.7155
124.5	52.5	34.5849
124.5	53.5	28.7516
124.5	54.5	26.5279
124.5	55.5	34.7996
124.5	56.5	45.3731
124.5	57.5	53.3926
124.5	58.5	59.2253
124.5	59.5	50.9748
124.5	60.5	41.5845
124.5	61.5	44.8658
124.5	62.5	47.7877
124.5	63.5	45.8032
124.5	64.5	43.9719
124.5	65.5	42.6852
124.5	66.5	40.7844
124.5	67.5	36.0818
124.5	68.5	33.3306
124.5	69.5	35.0615
124.5	70.5	34.9239
124.5	71.5	35.3592
124.5	72.5	34.7839
124.5	73.5	33.6208
125.5	-88.5	38.3867
125.5	-87.5	38.6113
125.5	-86.5	38.5149
125.5	-85.5	41.6767
125.5	-84.5	45.2388
125.5	-83.5	46.6875
125.5	-82.5	45.4054
125.5	-81.5	44.0234
125.5	-80.5	42.7038
125.5	-79.5	41.4354
125.5	-78.5	41.6021
125.5	-77.5	40.9757
125.5	-76.5	39.217
125.5	-75.5	38.5894
125.5	-74.5	40.1297
125.5	-73.5	42.6393
125.5	-72.5	44.8321
125.5	-71.5	42.687
125.5	-70.5	39.5559
125.5	-69.5	37.6821
125.5	-68.5	35.7315
125.5	-67.5	34.1973
125.5	-32.5	32.6428
125.5	-31.5	35.6751
125.5	-30.5	41.4263
125.5	-29.5	43.965
125.5	-28.5	45.7251
125.5	-27.5	46.205
125.5	-26.5	47.7359
125.5	-25.5	40.1812
125.5	-24.5	31.7569
125.5	-23.5	27.3547
125.5	-22.5	25.9843
125.5	-21.5	27.1357
125.5	-20.5	29.7378
125.5	-19.5	29.3779
125.5	-18.5	25.7284
125.5	-17.5	21.8128
125.5	-16.5	18.8272
125.5	-15.5	16.4671
125.5	6.5	35.5431
125.5	7.5	33.9523
125.5	8.5	30.6888
125.5	9.5	22.0906
125.5	11.5	13.8091
125.5	38.5	26.1087
125.5	39.5	26.2235
125.5	40.5	30.6943
125.5	41.5	35.7944
125.5	42.5	35.7708
125.5	43.5	36.7722
125.5	44.5	35.9082
125.5	45.5	33.7427
125.5	46.5	27.8793
125.5	47.5	25.18
125.5	48.5	28.3228
125.5	49.5	33.4563
125.5	50.5	36.6649
125.5	51.5	37.0305
125.5	52.5	33.1764
125.5	53.5	28.1422
125.5	54.5	26.9922
125.5	55.5	34.9709
125.5	56.5	42.8027
125.5	57.5	50.2608
125.5	58.5	50.5445
125.5	59.5	45.8262
125.5	60.5	43.7373
125.5	61.5	44.245
125.5	62.5	45.2389
125.5	63.5	46.4517
125.5	64.5	43.8553
125.5	65.5	39.7764
125.5	66.5	37.0936
125.5	67.5	34.9741
125.5	68.5	33.8663
125.5	69.5	33.3076
125.5	70.5	33.5893
125.5	71.5	36.8597
125.5	72.5	31.6469
125.5	73.5	30.7102
126.5	-88.5	37.516
126.5	-87.5	38.6853
126.5	-86.5	38.836
126.5	-85.5	41.7759
126.5	-84.5	45.3381
126.5	-83.5	46.7651
126.5	-82.5	46.2721
126.5	-81.5	45.7792
126.5	-80.5	44.9063
126.5	-79.5	43.6379
126.5	-78.5	43.1176
126.5	-77.5	41.1036
126.5	-76.5	39.0896
126.5	-75.5	38.734
126.5	-74.5	41.7328
126.5	-73.5	44.6693
126.5	-72.5	44.5372
126.5	-71.5	41.9717
126.5	-70.5	38.9952
126.5	-69.5	35.6844
126.5	-68.5	34.8538
126.5	-67.5	36.3046
126.5	-66.5	29.963
126.5	-31.5	36.2179
126.5	-30.5	39.7942
126.5	-29.5	48.5608
126.5	-28.5	53.901
126.5	-27.5	51.5022
126.5	-26.5	46.5435
126.5	-25.5	37.3462
126.5	-24.5	28.9581
126.5	-23.5	30.543
126.5	-22.5	37.0268
126.5	-21.5	33.6182
126.5	-20.5	28.1035
126.5	-19.5	25.4852
126.5	-18.5	25.5583
126.5	-17.5	21.9977
126.5	-16.5	21.0035
126.5	-15.5	22.3028
126.5	-14.5	24.0537
126.5	-8.5	19.3542
126.5	-3.5	4.3608
126.5	7.5	29.5548
126.5	34.5	34.728
126.5	35.5	26.9661
126.5	36.5	25.1226
126.5	37.5	25.983
126.5	38.5	26.9073
126.5	39.5	26.7356
126.5	40.5	29.9809
126.5	41.5	34.3193
126.5	42.5	33.2699
126.5	43.5	34.7772
126.5	44.5	36.7606
126.5	45.5	37.5399
126.5	46.5	31.6763
126.5	47.5	28.9661
126.5	48.5	29.0153
126.5	49.5	30.1842
126.5	50.5	33.2098
126.5	51.5	33.7807
126.5	52.5	31.4544
126.5	53.5	28.6134
126.5	54.5	29.0885
126.5	55.5	34.9568
126.5	56.5	39.9904
126.5	57.5	43.7174
126.5	58.5	41.4353
126.5	59.5	39.8857
126.5	60.5	39.9539
126.5	61.5	40.4778
126.5	62.5	43.6071
126.5	63.5	44.4218
126.5	64.5	39.0682
126.5	65.5	35.1604
126.5	66.5	34.9157
126.5	67.5	34.6645
126.5	68.5	32.6442
126.5	69.5	32.2018
126.5	70.5	36.5538
126.5	71.5	36.4289
126.5	72.5	30.8016
127.5	-88.5	36.6452
127.5	-87.5	38.7593
127.5	-86.5	39.1572
127.5	-85.5	41.8751
127.5	-84.5	45.4373
127.5	-83.5	46.8428
127.5	-82.5	46.3498
127.5	-81.5	46.1213
127.5	-80.5	45.9817
127.5	-79.5	44.9735
127.5	-78.5	44.8633
127.5	-77.5	42.5664
127.5	-76.5	40.2694
127.5	-75.5	39.6436
127.5	-74.5	42.5216
127.5	-73.5	45.2706
127.5	-72.5	43.8052
127.5	-71.5	41.2563
127.5	-70.5	38.5584
127.5	-69.5	35.7949
127.5	-68.5	34.8543
127.5	-67.5	38.3762
127.5	-66.5	37.4138
127.5	-31.5	34.7024
127.5	-30.5	36.965
127.5	-29.5	48.0066
127.5	-28.5	53.0837
127.5	-27.5	48.2174
127.5	-26.5	41.4374
127.5	-25.5	34.3769
127.5	-24.5	35.8354
127.5	-23.5	41.1951
127.5	-22.5	40.8479
127.5	-21.5	35.0772
127.5	-20.5	30.0008
127.5	-19.5	27.0086
127.5	-18.5	28.327
127.5	-17.5	34.9508
127.5	-16.5	33.8379
127.5	-15.5	27.5383
127.5	-14.5	26.3657
127.5	-1.5	15.82
127.5	1.5	24.6462
127.5	35.5	29.5615
127.5	36.5	26.9164
127.5	37.5	26.8424
127.5	38.5	26.3794
127.5	40.5	29.8318
127.5	41.5	34.3529
127.5	42.5	32.4153
127.5	43.5	33.6978
127.5	44.5	36.2676
127.5	45.5	38.4263
127.5	46.5	33.557
127.5	47.5	32.861
127.5	48.5	33.0952
127.5	49.5	34.8801
127.5	50.5	33.1844
127.5	51.5	30.6494
127.5	52.5	28.9339
127.5	53.5	28.6476
127.5	54.5	30.7083
127.5	55.5	32.5887
127.5	56.5	37.1445
127.5	57.5	37.0286
127.5	58.5	36.3487
127.5	59.5	36.949
127.5	60.5	37.4296
127.5	61.5	41.3867
127.5	62.5	45.2283
127.5	63.5	41.2997
127.5	64.5	37.002
127.5	65.5	36.0768
127.5	66.5	36.1822
127.5	67.5	34.7097
127.5	68.5	32.547
127.5	69.5	35.4036
127.5	70.5	39.8527
127.5	71.5	35.998
127.5	72.5	31.2193
128.5	-88.5	35.7744
128.5	-87.5	38.8333
128.5	-86.5	39.4783
128.5	-85.5	41.9744
128.5	-84.5	45.3234
128.5	-83.5	46.6759
128.5	-82.5	46.4275
128.5	-81.5	46.5823
128.5	-80.5	46.9971
128.5	-79.5	45.9889
128.5	-78.5	46.7017
128.5	-77.5	45.6966
128.5	-76.5	43.2763
128.5	-75.5	39.946
128.5	-74.5	42.0733
128.5	-73.5	43.0285
128.5	-72.5	42.4321
128.5	-71.5	40.4736
128.5	-70.5	38.3703
128.5	-69.5	36.3903
128.5	-68.5	34.0606
128.5	-67.5	36.0836
128.5	-31.5	34.0852
128.5	-30.5	32.2014
128.5	-29.5	41.8342
128.5	-28.5	42.7185
128.5	-27.5	38.5071
128.5	-26.5	35.1557
128.5	-25.5	33.1962
128.5	-24.5	38.7084
128.5	-23.5	44.5969
128.5	-22.5	40.0861
128.5	-21.5	30.447
128.5	-20.5	26.5142
128.5	-19.5	31.454
128.5	-18.5	36.8743
128.5	-17.5	48.5357
128.5	-16.5	45.0426
128.5	-15.5	36.9368
128.5	0.5	26.1376
128.5	1.5	23.5353
128.5	35.5	28.6056
128.5	36.5	27.7617
128.5	37.5	26.4559
128.5	40.5	28.3954
128.5	41.5	33.6276
128.5	42.5	32.2728
128.5	43.5	33.2211
128.5	44.5	35.9121
128.5	45.5	38.4738
128.5	46.5	33.8923
128.5	47.5	32.6613
128.5	48.5	34.7518
128.5	49.5	39.5095
128.5	50.5	37.1225
128.5	51.5	33.416
128.5	52.5	28.8748
128.5	53.5	28.4732
128.5	54.5	31.9814
128.5	55.5	32.4595
128.5	56.5	29.8936
128.5	57.5	29.8018
128.5	58.5	31.517
128.5	59.5	34.0939
128.5	60.5	37.495
128.5	61.5	41.4002
128.5	62.5	42.465
128.5	63.5	40.7273
128.5	64.5	38.1644
128.5	65.5	37.3504
128.5	66.5	36.0489
128.5	67.5	34.455
128.5	68.5	33.9935
128.5	69.5	38.025
128.5	70.5	39.352
128.5	71.5	38.989
128.5	72.5	33.9323
129.5	-88.5	34.9036
129.5	-87.5	38.9074
129.5	-86.5	39.7995
129.5	-85.5	42.0736
129.5	-84.5	45.033
129.5	-83.5	46.3854
129.5	-82.5	46.5052
129.5	-81.5	47.0432
129.5	-80.5	47.982
129.5	-79.5	47.3129
129.5	-78.5	48.5074
129.5	-77.5	48.8269
129.5	-76.5	45.9444
129.5	-75.5	42.614
129.5	-74.5	41.3828
129.5	-73.5	41.3914
129.5	-72.5	42.4353
129.5	-71.5	40.0452
129.5	-70.5	38.2253
129.5	-69.5	36.1698
129.5	-68.5	34.2313
129.5	-67.5	33.377
129.5	-31.5	39.2269
129.5	-30.5	34.2542
129.5	-29.5	34.5767
129.5	-28.5	34.8727
129.5	-27.5	34.0048
129.5	-26.5	30.6653
129.5	-25.5	34.1661
129.5	-24.5	42.1854
129.5	-23.5	45.2448
129.5	-22.5	34.2244
129.5	-21.5	26.8901
129.5	-20.5	29.7914
129.5	-19.5	35.8459
129.5	-18.5	40.8948
129.5	-17.5	63.0813
129.5	-16.5	52.8846
129.5	-15.5	35.3687
129.5	-14.5	25.6343
129.5	41.5	31.32
129.5	42.5	30.5172
129.5	43.5	32.123
129.5	44.5	33.8316
129.5	45.5	34.1419
129.5	46.5	31.737
129.5	47.5	31.1542
129.5	48.5	32.9315
129.5	49.5	36.3593
129.5	50.5	39.191
129.5	51.5	33.676
129.5	52.5	28.9182
129.5	53.5	28.2294
129.5	54.5	33.2545
129.5	55.5	33.2411
129.5	56.5	29.7048
129.5	57.5	25.9087
129.5	58.5	28.3402
129.5	59.5	32.0782
129.5	60.5	36.6966
129.5	61.5	39.904
129.5	62.5	38.3458
129.5	63.5	36.8825
129.5	64.5	37.1289
129.5	65.5	35.7175
129.5	66.5	34.6173
129.5	67.5	33.4435
129.5	68.5	34.3074
129.5	69.5	36.2134
129.5	70.5	36.4909
129.5	72.5	35.2158
130.5	-88.5	34.0328
130.5	-87.5	38.9814
130.5	-86.5	40.1206
130.5	-85.5	42.1728
130.5	-84.5	44.7425
130.5	-83.5	46.095
130.5	-82.5	46.5828
130.5	-81.5	47.5041
130.5	-80.5	48.4429
130.5	-79.5	49.1185
130.5	-78.5	50.313
130.5	-77.5	51.3672
130.5	-76.5	47.2758
130.5	-75.5	43.2141
130.5	-74.5	42.4714
130.5	-73.5	43.8042
130.5	-72.5	43.6085
130.5	-71.5	39.7374
130.5	-70.5	37.5488
130.5	-69.5	35.9396
130.5	-68.5	35.9692
130.5	-67.5	37.2041
130.5	-66.5	36.2048
130.5	-31.5	38.882
130.5	-30.5	37.3272
130.5	-29.5	34.4921
130.5	-28.5	32.8901
130.5	-27.5	32.7142
130.5	-26.5	32.4973
130.5	-25.5	37.1636
130.5	-24.5	46.854
130.5	-23.5	49.0677
130.5	-22.5	32.8746
130.5	-21.5	29.346
130.5	-20.5	33.2741
130.5	-19.5	38.3652
130.5	-18.5	41.432
130.5	-17.5	55.3208
130.5	-16.5	45.8926
130.5	-15.5	36.2184
130.5	-14.5	29.4305
130.5	-13.5	33.3873
130.5	-11.5	31.8905
130.5	-3.5	11.9103
130.5	31.5	15.7231
130.5	32.5	17.3243
130.5	33.5	19.2146
130.5	42.5	28.5149
130.5	43.5	29.623
130.5	44.5	30.4249
130.5	45.5	30.2579
130.5	46.5	28.221
130.5	47.5	27.7125
130.5	48.5	29.0866
130.5	49.5	32.0801
130.5	50.5	33.8022
130.5	51.5	30.6766
130.5	52.5	28.1223
130.5	53.5	27.0247
130.5	54.5	32.8699
130.5	55.5	33.7568
130.5	56.5	31.4349
130.5	57.5	29.2926
130.5	58.5	28.0667
130.5	59.5	30.2317
130.5	60.5	34.5617
130.5	61.5	34.4306
130.5	62.5	33.662
130.5	63.5	33.4455
130.5	64.5	33.5748
130.5	65.5	33.7913
130.5	66.5	32.4484
130.5	67.5	31.9416
130.5	68.5	33.0116
130.5	69.5	33.9433
130.5	70.5	33.6863
131.5	-87.5	39.0554
131.5	-86.5	40.4417
131.5	-85.5	42.272
131.5	-84.5	44.4521
131.5	-83.5	45.8045
131.5	-82.5	47.0457
131.5	-81.5	48.1098
131.5	-80.5	49.1739
131.5	-79.5	50.2287
131.5	-78.5	51.2655
131.5	-77.5	50.429
131.5	-76.5	46.1704
131.5	-75.5	42.1088
131.5	-74.5	44.0868
131.5	-73.5	46.2169
131.5	-72.5	43.6834
131.5	-71.5	39.8123
131.5	-70.5	36.6615
131.5	-69.5	34.4069
131.5	-68.5	33.3957
131.5	-67.5	37.6169
131.5	-66.5	41.1111
131.5	-31.5	35.4305
131.5	-30.5	33.1206
131.5	-29.5	31.4646
131.5	-28.5	31.8994
131.5	-27.5	32.015
131.5	-26.5	32.1558
131.5	-25.5	41.7468
131.5	-24.5	48.6263
131.5	-23.5	46.6631
131.5	-22.5	33.4009
131.5	-21.5	29.3986
131.5	-20.5	35.116
131.5	-19.5	43.7987
131.5	-18.5	49.2575
131.5	-17.5	54.8341
131.5	-16.5	40.7608
131.5	-15.5	31.2574
131.5	-14.5	30.0394
131.5	-13.5	35.9408
131.5	-12.5	33.4781
131.5	-7.5	30.2939
131.5	-1.5	15.1368
131.5	32.5	15.9458
131.5	33.5	17.7131
131.5	34.5	22.2039
131.5	43.5	26.8391
131.5	44.5	27.7991
131.5	45.5	28.4573
131.5	46.5	25.8229
131.5	47.5	24.7532
131.5	48.5	26.1124
131.5	49.5	27.2874
131.5	50.5	28.2635
131.5	51.5	26.6546
131.5	52.5	25.2099
131.5	53.5	26.1258
131.5	54.5	32.4212
131.5	55.5	32.9489
131.5	56.5	33.0488
131.5	57.5	32.6765
131.5	58.5	31.7164
131.5	59.5	30.7063
131.5	60.5	30.6874
131.5	61.5	31.771
131.5	62.5	31.1515
131.5	63.5	29.1999
131.5	64.5	29.3155
131.5	65.5	29.6734
131.5	66.5	30.0313
131.5	67.5	30.8356
131.5	68.5	31.7299
131.5	69.5	31.4262
131.5	70.5	30.9042
132.5	-87.5	39.1294
132.5	-86.5	40.7629
132.5	-85.5	42.43
132.5	-84.5	44.1616
132.5	-83.5	45.9542
132.5	-82.5	47.7819
132.5	-81.5	49.0077
132.5	-80.5	50.0983
132.5	-79.5	51.1624
132.5	-78.5	52.2005
132.5	-77.5	49.4753
132.5	-76.5	45.1104
132.5	-75.5	43.4722
132.5	-74.5	45.1394
132.5	-73.5	45.4752
132.5	-72.5	42.1771
132.5	-71.5	38.4493
132.5	-70.5	37.5092
132.5	-69.5	33.2636
132.5	-68.5	29.8682
132.5	-67.5	31.8224
132.5	-66.5	34.5824
132.5	-31.5	36.3851
132.5	-30.5	30.7449
132.5	-29.5	26.9014
132.5	-28.5	27.6638
132.5	-27.5	29.1884
132.5	-26.5	30.6211
132.5	-25.5	45.4803
132.5	-24.5	49.8287
132.5	-23.5	41.3489
132.5	-22.5	27.5021
132.5	-21.5	28.6678
132.5	-20.5	32.7227
132.5	-19.5	41.3543
132.5	-18.5	54.1192
132.5	-17.5	60.021
132.5	-16.5	46.2314
132.5	-15.5	34.1845
132.5	-14.5	28.161
132.5	-13.5	30.8736
132.5	-12.5	31.2999
132.5	-11.5	38.754
132.5	-1.5	10.9813
132.5	-0.5	14.6212
132.5	33.5	16.3774
132.5	34.5	21.2536
132.5	43.5	24.0786
132.5	44.5	24.8588
132.5	45.5	26.5414
132.5	46.5	26.0808
132.5	47.5	24.5839
132.5	48.5	22.5257
132.5	49.5	22.5548
132.5	50.5	24.7969
132.5	51.5	23.5851
132.5	52.5	22.9513
132.5	53.5	25.6171
132.5	54.5	31.8304
132.5	55.5	30.5559
132.5	56.5	30.6742
132.5	57.5	33.7346
132.5	58.5	34.3653
132.5	59.5	33.5195
132.5	60.5	32.9607
132.5	61.5	32.2573
132.5	62.5	30.2565
132.5	63.5	28.4776
132.5	64.5	27.2948
132.5	65.5	28.5755
132.5	66.5	29.1741
132.5	67.5	29.3644
132.5	68.5	29.7397
132.5	69.5	29.4371
132.5	70.5	29.7743
132.5	71.5	29.5169
133.5	-87.5	39.4169
133.5	-86.5	41.084
133.5	-85.5	42.7237
133.5	-84.5	44.6502
133.5	-83.5	46.4779
133.5	-82.5	48.3055
133.5	-81.5	49.7188
133.5	-80.5	50.9259
133.5	-79.5	52.0868
133.5	-78.5	52.8864
133.5	-77.5	48.5215
133.5	-76.5	44.9408
133.5	-75.5	42.9503
133.5	-74.5	43.9799
133.5	-73.5	42.5492
133.5	-72.5	39.3661
133.5	-71.5	39.2727
133.5	-70.5	39.4745
133.5	-69.5	38.151
133.5	-68.5	33.0005
133.5	-67.5	29.7432
133.5	-66.5	30.0308
133.5	-31.5	37.3634
133.5	-30.5	30.4237
133.5	-29.5	29.6947
133.5	-28.5	27.9232
133.5	-27.5	27.7074
133.5	-26.5	32.7158
133.5	-25.5	50.5395
133.5	-24.5	46.2134
133.5	-23.5	35.5993
133.5	-22.5	29.0346
133.5	-21.5	32.5245
133.5	-20.5	36.8744
133.5	-19.5	45.4143
133.5	-18.5	56.8002
133.5	-17.5	61.6848
133.5	-16.5	49.5914
133.5	-15.5	40.0751
133.5	-14.5	34.3861
133.5	-13.5	28.5888
133.5	-12.5	26.5129
133.5	-3.5	11.5183
133.5	-2.5	9.5923
133.5	-1.5	14.8134
133.5	33.5	16.2274
133.5	34.5	20.3452
133.5	35.5	25.9876
133.5	43.5	22.2111
133.5	44.5	21.2813
133.5	45.5	22.4504
133.5	46.5	24.4557
133.5	47.5	24.8234
133.5	48.5	22.754
133.5	49.5	20.9984
133.5	50.5	22.1446
133.5	51.5	21.4112
133.5	52.5	22.1327
133.5	53.5	25.0751
133.5	54.5	29.6492
133.5	55.5	28.2126
133.5	56.5	29.2477
133.5	57.5	32.5687
133.5	58.5	34.2714
133.5	59.5	34.56
133.5	60.5	33.5714
133.5	61.5	34.0555
133.5	62.5	33.71
133.5	63.5	31.7011
133.5	64.5	29.5651
133.5	65.5	28.2482
133.5	66.5	28.4667
133.5	67.5	28.6852
133.5	68.5	29.7874
133.5	69.5	30.3211
133.5	70.5	30.0241
133.5	71.5	29.3927
134.5	-87.5	39.7381
134.5	-86.5	41.4052
134.5	-85.5	42.9156
134.5	-84.5	44.7704
134.5	-83.5	46.9668
134.5	-82.5	48.8291
134.5	-81.5	50.4299
134.5	-80.5	51.637
134.5	-79.5	52.8441
134.5	-78.5	52.9631
134.5	-77.5	49.6577
134.5	-76.5	46.3904
134.5	-75.5	43.3779
134.5	-74.5	42.8063
134.5	-73.5	40.6418
134.5	-72.5	40.0404
134.5	-71.5	43.3521
134.5	-70.5	42.9158
134.5	-69.5	41.974
134.5	-68.5	39.3484
134.5	-67.5	36.2064
134.5	-66.5	34.4246
134.5	-32.5	41.7636
134.5	-31.5	40.9394
134.5	-30.5	36.8501
134.5	-29.5	35.5722
134.5	-28.5	35.8369
134.5	-27.5	36.2986
134.5	-26.5	35.3343
134.5	-25.5	58.7249
134.5	-24.5	51.9253
134.5	-23.5	39.4272
134.5	-22.5	36.7866
134.5	-21.5	48.6474
134.5	-20.5	48.5291
134.5	-19.5	45.7827
134.5	-18.5	53.4876
134.5	-17.5	57.407
134.5	-16.5	48.6445
134.5	-15.5	39.3846
134.5	-14.5	33.6623
134.5	-13.5	27.0476
134.5	-12.5	25.734
134.5	-6.5	31.808
134.5	-5.5	22.4033
134.5	-3.5	18.5086
134.5	-2.5	20.5729
134.5	35.5	25.1369
134.5	43.5	22.9857
134.5	44.5	21.233
134.5	45.5	18.9072
134.5	46.5	21.8428
134.5	47.5	22.9131
134.5	48.5	23.704
134.5	49.5	22.2592
134.5	50.5	21.7444
134.5	51.5	20.2571
134.5	52.5	20.9962
134.5	53.5	22.6814
134.5	54.5	27.468
134.5	55.5	27.4727
134.5	56.5	28.9314
134.5	57.5	31.2119
134.5	58.5	32.455
134.5	59.5	33.6981
134.5	60.5	38.142
134.5	61.5	39.7357
134.5	62.5	37.7442
134.5	63.5	32.8501
134.5	64.5	30.3229
134.5	65.5	28.7652
134.5	66.5	28.0104
134.5	67.5	28.864
134.5	68.5	30.1351
134.5	69.5	30.963
134.5	70.5	30.5306
135.5	-87.5	40.0592
135.5	-86.5	41.7263
135.5	-85.5	43.1075
135.5	-84.5	44.7794
135.5	-83.5	46.9758
135.5	-82.5	49.1722
135.5	-81.5	51.141
135.5	-80.5	52.0997
135.5	-79.5	52.5018
135.5	-78.5	52.9039
135.5	-77.5	51.069
135.5	-76.5	47.9038
135.5	-75.5	44.8913
135.5	-74.5	42.1057
135.5	-73.5	41.5692
135.5	-72.5	42.5406
135.5	-71.5	45.8522
135.5	-70.5	47.5008
135.5	-69.5	44.7844
135.5	-68.5	41.0179
135.5	-67.5	39.0528
135.5	-66.5	35.2719
135.5	-34.5	28.3164
135.5	-33.5	26.9413
135.5	-32.5	35.6959
135.5	-31.5	42.9342
135.5	-30.5	43.0191
135.5	-29.5	44.8298
135.5	-28.5	44.8233
135.5	-27.5	40.806
135.5	-26.5	37.6609
135.5	-25.5	50.7109
135.5	-24.5	46.681
135.5	-23.5	44.6607
135.5	-22.5	48.3885
135.5	-21.5	60.1174
135.5	-20.5	49.5146
135.5	-19.5	44.1748
135.5	-18.5	46.8446
135.5	-17.5	45.4345
135.5	-16.5	38.1821
135.5	-15.5	33.3076
135.5	-14.5	31.543
135.5	-13.5	25.7956
135.5	-12.5	25.8002
135.5	-3.5	23.7264
135.5	33.5	19.1176
135.5	34.5	14.7289
135.5	35.5	20.0939
135.5	44.5	22.4571
135.5	45.5	20.1565
135.5	46.5	20.5484
135.5	47.5	21.5615
135.5	48.5	22.5527
135.5	49.5	22.3763
135.5	50.5	21.5579
135.5	51.5	19.9733
135.5	52.5	18.6133
135.5	53.5	20.198
135.5	54.5	25.4963
135.5	55.5	27.4646
135.5	56.5	29.4971
135.5	57.5	32.8743
135.5	58.5	32.5886
135.5	59.5	38.2807
135.5	60.5	45.4491
135.5	61.5	48.4332
135.5	62.5	41.892
135.5	63.5	35.404
135.5	64.5	30.983
135.5	65.5	29.2123
135.5	66.5	28.1199
135.5	67.5	29.0706
135.5	68.5	30.3324
135.5	69.5	31.0449
135.5	70.5	31.2361
135.5	71.5	30.0958
136.5	-87.5	40.3804
136.5	-86.5	41.9205
136.5	-85.5	43.2994
136.5	-84.5	44.7884
136.5	-83.5	46.9848
136.5	-82.5	49.1811
136.5	-81.5	50.7984
136.5	-80.5	51.4066
136.5	-79.5	51.8995
136.5	-78.5	52.3704
136.5	-77.5	52.4804
136.5	-76.5	48.5925
136.5	-75.5	43.8587
136.5	-74.5	42.5624
136.5	-73.5	42.465
136.5	-72.5	44.8294
136.5	-71.5	47.377
136.5	-70.5	51.3338
136.5	-69.5	47.7401
136.5	-68.5	42.764
136.5	-67.5	38.7804
136.5	-66.5	32.1871
136.5	-33.5	33.3825
136.5	-32.5	39.2481
136.5	-31.5	43.2598
136.5	-30.5	44.5139
136.5	-29.5	46.3174
136.5	-28.5	46.9549
136.5	-27.5	43.1833
136.5	-26.5	30.4524
136.5	-25.5	36.3338
136.5	-24.5	40.3418
136.5	-23.5	44.9195
136.5	-22.5	51.3973
136.5	-21.5	48.9597
136.5	-20.5	40.8458
136.5	-19.5	38.1256
136.5	-18.5	40.0118
136.5	-17.5	36.7605
136.5	-16.5	29.6528
136.5	-12.5	30.519
136.5	-4.5	24.2096
136.5	-3.5	24.0394
136.5	-2.5	22.6097
136.5	34.5	12.4332
136.5	35.5	17.3344
136.5	36.5	20.231
136.5	45.5	21.2557
136.5	46.5	21.0306
136.5	47.5	21.3835
136.5	48.5	20.6986
136.5	49.5	20.1225
136.5	50.5	20.7194
136.5	51.5	19.6192
136.5	52.5	18.2891
136.5	53.5	18.7694
136.5	54.5	23.7422
136.5	56.5	31.7376
136.5	57.5	34.9735
136.5	58.5	34.8428
136.5	59.5	36.3631
136.5	60.5	42.714
136.5	61.5	47.9007
136.5	62.5	47.6357
136.5	63.5	40.1869
136.5	64.5	32.1262
136.5	65.5	28.4832
136.5	66.5	28.952
136.5	67.5	29.4208
136.5	68.5	30.1925
136.5	69.5	30.7466
136.5	70.5	31.1384
136.5	71.5	30.1228
137.5	-87.5	40.7015
137.5	-86.5	42.1125
137.5	-85.5	43.4913
137.5	-84.5	44.8702
137.5	-83.5	46.9938
137.5	-82.5	48.8346
137.5	-81.5	49.6928
137.5	-80.5	50.459
137.5	-79.5	50.9519
137.5	-78.5	51.4448
137.5	-77.5	50.3698
137.5	-76.5	47.4286
137.5	-75.5	43.1165
137.5	-74.5	43.019
137.5	-73.5	41.3049
137.5	-72.5	43.3165
137.5	-71.5	46.6708
137.5	-70.5	52.4169
137.5	-69.5	55.6311
137.5	-68.5	50.3842
137.5	-67.5	42.7151
137.5	-66.5	35.3142
137.5	-34.5	43.069
137.5	-32.5	38.6299
137.5	-31.5	39.9681
137.5	-30.5	43.1045
137.5	-29.5	41.1782
137.5	-28.5	40.8892
137.5	-27.5	36.1596
137.5	-26.5	25.1897
137.5	-25.5	30.5254
137.5	-24.5	36.6904
137.5	-23.5	45.7786
137.5	-22.5	49.0877
137.5	-21.5	40.7328
137.5	-20.5	33.5091
137.5	-19.5	34.6282
137.5	-18.5	38.5566
137.5	-17.5	32.2415
137.5	-16.5	31.318
137.5	-4.5	24.8312
137.5	-3.5	22.5543
137.5	-2.5	19.2558
137.5	35.5	19.3576
137.5	36.5	21.9048
137.5	46.5	21.5931
137.5	47.5	23.5885
137.5	48.5	21.9839
137.5	49.5	18.2106
137.5	50.5	19.4919
137.5	51.5	18.7302
137.5	52.5	18.6659
137.5	53.5	19.5479
137.5	56.5	31.9316
137.5	57.5	38.517
137.5	58.5	38.8273
137.5	59.5	38.617
137.5	60.5	38.0826
137.5	61.5	43.2714
137.5	62.5	45.5079
137.5	63.5	40.0747
137.5	64.5	31.7015
137.5	65.5	29.4122
137.5	66.5	29.6597
137.5	67.5	29.8821
137.5	68.5	29.4763
137.5	69.5	30.0062
137.5	70.5	29.8293
137.5	71.5	29.4409
137.5	75.5	24.8695
138.5	-87.5	40.9255
138.5	-86.5	42.3044
138.5	-85.5	43.6832
138.5	-84.5	45.0621
138.5	-83.5	46.8708
138.5	-82.5	47.729
138.5	-81.5	48.5872
138.5	-80.5	49.4454
138.5	-79.5	50.0042
138.5	-78.5	48.5926
138.5	-77.5	47.0077
138.5	-76.5	45.4228
138.5	-75.5	43.1005
138.5	-74.5	40.5525
138.5	-73.5	40.3199
138.5	-72.5	41.1335
138.5	-71.5	48.8813
138.5	-70.5	54.3622
138.5	-69.5	59.5894
138.5	-68.5	56.2487
138.5	-67.5	48.711
138.5	-35.5	31.2406
138.5	-34.5	49.9826
138.5	-33.5	36.0586
138.5	-32.5	31.9934
138.5	-31.5	37.6449
138.5	-30.5	39.6682
138.5	-29.5	33.2971
138.5	-28.5	31.813
138.5	-27.5	34.3849
138.5	-26.5	29.8598
138.5	-25.5	30.6012
138.5	-24.5	42.5703
138.5	-23.5	51.4988
138.5	-22.5	46.4961
138.5	-21.5	33.8102
138.5	-20.5	33.383
138.5	-19.5	36.6473
138.5	-18.5	37.3961
138.5	-17.5	32.7921
138.5	-7.5	29.0971
138.5	-5.5	23.2276
138.5	-4.5	26.6814
138.5	-3.5	28.9013
138.5	-2.5	28.7622
138.5	35.5	23.9399
138.5	36.5	21.0448
138.5	47.5	25.5244
138.5	48.5	25.7511
138.5	49.5	22.7687
138.5	50.5	18.6063
138.5	51.5	21.8705
138.5	52.5	21.1159
138.5	53.5	19.7429
138.5	57.5	36.6571
138.5	58.5	43.9744
138.5	59.5	41.0879
138.5	60.5	38.2014
138.5	61.5	36.1817
138.5	62.5	35.3662
138.5	63.5	34.5508
138.5	64.5	32.7599
138.5	65.5	31.4422
138.5	66.5	30.3051
138.5	67.5	29.8736
138.5	68.5	29.5838
138.5	69.5	29.2269
138.5	70.5	29.3198
138.5	71.5	29.3804
138.5	75.5	23.9823
139.5	-87.5	40.4885
139.5	-86.5	41.9044
139.5	-85.5	43.323
139.5	-84.5	44.7415
139.5	-83.5	45.9363
139.5	-82.5	46.7936
139.5	-81.5	47.6508
139.5	-80.5	48.5081
139.5	-79.5	47.4135
139.5	-78.5	45.9183
139.5	-77.5	44.4231
139.5	-76.5	42.7293
139.5	-75.5	40.4827
139.5	-74.5	37.9769
139.5	-73.5	38.0523
139.5	-72.5	37.1869
139.5	-71.5	48.4227
139.5	-70.5	57.3448
139.5	-69.5	59.3663
139.5	-68.5	57.6384
139.5	-67.5	50.9461
139.5	-35.5	27.0013
139.5	-34.5	32.2187
139.5	-33.5	24.096
139.5	-32.5	28.716
139.5	-31.5	37.2398
139.5	-30.5	43.0116
139.5	-29.5	30.1981
139.5	-28.5	26.0417
139.5	-27.5	30.368
139.5	-26.5	29.577
139.5	-25.5	30.3822
139.5	-24.5	41.815
139.5	-23.5	50.3385
139.5	-22.5	45.6273
139.5	-21.5	33.7064
139.5	-20.5	32.3849
139.5	-19.5	33.7225
139.5	-18.5	35.573
139.5	-17.5	31.8183
139.5	-7.5	26.625
139.5	-6.5	24.9278
139.5	-5.5	20.1386
139.5	-4.5	28.7222
139.5	-3.5	36.151
139.5	-2.5	38.4476
139.5	35.5	25.3022
139.5	36.5	21.1118
139.5	37.5	17.9695
139.5	38.5	17.962
139.5	48.5	28.2267
139.5	49.5	27.8927
139.5	50.5	24.5186
139.5	51.5	25.9745
139.5	52.5	25.0774
139.5	53.5	22.4999
139.5	57.5	33.7329
139.5	58.5	36.6309
139.5	59.5	38.6029
139.5	60.5	35.057
139.5	61.5	30.6541
139.5	62.5	28.3925
139.5	63.5	28.7324
139.5	64.5	29.6613
139.5	65.5	28.3703
139.5	66.5	30.8096
139.5	67.5	32.5573
139.5	68.5	32.0846
139.5	69.5	30.4676
139.5	70.5	29.7724
139.5	71.5	29.3953
139.5	75.5	24.7346
140.5	-87.5	39.5753
140.5	-86.5	40.9846
140.5	-85.5	42.3971
140.5	-84.5	43.8156
140.5	-83.5	45.2181
140.5	-82.5	46.0753
140.5	-81.5	46.9326
140.5	-80.5	46.5524
140.5	-79.5	45.2557
140.5	-78.5	43.8163
140.5	-77.5	42.1169
140.5	-76.5	39.8704
140.5	-75.5	37.6239
140.5	-74.5	35.3899
140.5	-73.5	33.1236
140.5	-72.5	36.7283
140.5	-71.5	47.9641
140.5	-70.5	57.0432
140.5	-69.5	57.2251
140.5	-68.5	55.5085
140.5	-67.5	50.2246
140.5	-37.5	20.5677
140.5	-36.5	24.2517
140.5	-35.5	26.2134
140.5	-34.5	23.4653
140.5	-33.5	16.691
140.5	-32.5	23.8142
140.5	-31.5	41.7386
140.5	-30.5	44.6749
140.5	-29.5	32.6079
140.5	-28.5	27.6798
140.5	-27.5	30.129
140.5	-26.5	26.3069
140.5	-25.5	25.89
140.5	-24.5	37.8326
140.5	-23.5	49.0441
140.5	-22.5	46.0069
140.5	-21.5	34.2957
140.5	-20.5	29.4278
140.5	-19.5	27.7148
140.5	-18.5	28.3082
140.5	-8.5	28.6031
140.5	-7.5	26.115
140.5	-6.5	26.4473
140.5	-5.5	26.2816
140.5	-4.5	33.3729
140.5	-3.5	39.8283
140.5	-2.5	41.7478
140.5	36.5	19.9433
140.5	37.5	19.4094
140.5	38.5	21.9382
140.5	39.5	23.1257
140.5	40.5	25.6907
140.5	42.5	32.2717
140.5	49.5	29.1076
140.5	51.5	27.4508
140.5	52.5	28.8941
140.5	53.5	26.878
140.5	58.5	37.8815
140.5	59.5	36.6489
140.5	60.5	32.0988
140.5	61.5	27.5794
140.5	62.5	25.7315
140.5	63.5	26.1361
140.5	64.5	26.6935
140.5	65.5	28.8478
140.5	66.5	31.7384
140.5	67.5	34.6289
140.5	68.5	33.2723
140.5	69.5	31.5167
140.5	70.5	30.211
140.5	71.5	29.4101
140.5	72.5	28.7387
140.5	75.5	25.1821
141.5	-87.5	38.6621
141.5	-86.5	40.0714
141.5	-85.5	41.4807
141.5	-84.5	42.8901
141.5	-83.5	44.3083
141.5	-82.5	45.3571
141.5	-81.5	45.6286
141.5	-80.5	44.3319
141.5	-79.5	43.0351
141.5	-78.5	41.934
141.5	-77.5	40.4919
141.5	-76.5	39.0499
141.5	-75.5	37.3144
141.5	-74.5	33.8386
141.5	-73.5	29.4394
141.5	-72.5	33.4946
141.5	-71.5	42.1151
141.5	-70.5	48.7976
141.5	-69.5	54.915
141.5	-68.5	53.1984
141.5	-67.5	42.2546
141.5	-37.5	24.3973
141.5	-36.5	28.1307
141.5	-35.5	27.9122
141.5	-34.5	23.3476
141.5	-33.5	21.7546
141.5	-32.5	31.3993
141.5	-31.5	41.1251
141.5	-30.5	36.468
141.5	-29.5	28.3654
141.5	-28.5	29.2531
141.5	-27.5	32.9471
141.5	-26.5	28.0051
141.5	-25.5	24.7401
141.5	-24.5	32.321
141.5	-23.5	43.1525
141.5	-22.5	41.7562
141.5	-21.5	33.5536
141.5	-20.5	27.2391
141.5	-19.5	23.3982
141.5	-18.5	23.6378
141.5	-17.5	24.9082
141.5	-16.5	30.2302
141.5	-8.5	29.0689
141.5	-7.5	32.1602
141.5	-6.5	34.2475
141.5	-5.5	30.9213
141.5	-4.5	36.1795
141.5	-3.5	33.5774
141.5	38.5	22.5288
141.5	39.5	22.1338
141.5	43.5	25.2362
141.5	59.5	35.4848
141.5	60.5	30.5143
141.5	61.5	28.227
141.5	62.5	27.9768
141.5	63.5	27.7271
141.5	64.5	29.7134
141.5	65.5	32.2671
141.5	66.5	35.0222
141.5	67.5	34.1919
141.5	68.5	32.2631
141.5	69.5	30.5076
141.5	70.5	30.608
141.5	71.5	30.6669
141.5	72.5	29.3929
141.5	73.5	27.9256
141.5	75.5	25.6844
142.5	-87.5	38.0184
142.5	-86.5	39.1582
142.5	-85.5	40.5675
142.5	-84.5	41.9769
142.5	-83.5	43.3862
142.5	-82.5	44.6389
142.5	-81.5	43.6054
142.5	-80.5	42.9216
142.5	-79.5	42.2378
142.5	-78.5	41.4904
142.5	-77.5	40.5356
142.5	-76.5	38.8958
142.5	-75.5	36.2796
142.5	-74.5	32.2873
142.5	-73.5	27.52
142.5	-72.5	32.7108
142.5	-71.5	35.5189
142.5	-70.5	41.6552
142.5	-69.5	47.8989
142.5	-68.5	46.4756
142.5	-67.5	35.9826
142.5	-37.5	24.6342
142.5	-36.5	27.5672
142.5	-35.5	26.9044
142.5	-34.5	23.9101
142.5	-33.5	28.0065
142.5	-32.5	30.0895
142.5	-31.5	31.0913
142.5	-30.5	28.76
142.5	-29.5	26.9847
142.5	-28.5	26.111
142.5	-27.5	26.2637
142.5	-26.5	27.0565
142.5	-25.5	28.9996
142.5	-24.5	31.9491
142.5	-23.5	31.482
142.5	-22.5	35.8889
142.5	-21.5	35.3932
142.5	-20.5	29.0027
