lon	lat	Moho_depth
36.0	87.1	14.6542
37.0	-4.2	30.94
37.0	-0.8	32.29
37.0	2.6	29.9195
37.0	6.0	35.0005
37.0	9.4	31.15
37.0	12.9	34.1176
37.0	16.5	32.4165
37.0	20.1	14.014
37.0	23.9	22.1338
37.0	27.7	29.7452
37.1	-22.2	12.1023
37.1	-19.3	25.5777
37.1	-16.4	36.7122
37.1	-13.4	42.7418
37.1	-10.4	35.31
37.1	-7.3	37.1036
37.1	31.7	30.01
37.1	35.7	33.8873
37.2	-25.1	11.1245
37.2	39.6	40.4586
37.3	43.4	32.74
37.4	47.1	37.5846
37.6	50.7	47.26
37.7	54.2	50.225
37.9	-27.1	16.2
37.9	57.6	41.3071
38.0	-30.8	16.95
38.0	-29.0	14.9605
38.0	4.3	34.67
38.0	7.7	32.7064
38.0	11.2	33.8455
38.0	14.7	33.5234
38.0	18.3	18.942
38.1	-34.5	16.28
38.1	-32.7	16.1
38.1	-8.9	37.4174
38.1	-5.8	32.4895
38.1	-2.5	36.87
38.1	0.9	33.6814
38.1	22.0	18.318
38.1	25.8	31.0509
38.1	29.7	30.6931
38.1	61.0	42.234
38.2	-38.2	14.99
38.2	-36.3	16.15
38.2	-17.8	33.97
38.2	-14.9	41.6382
38.2	-11.9	39.178
38.2	33.7	33.0009
38.3	-40.0	14.33
38.3	-23.6	12.6179
38.3	-20.7	17.0634
38.4	-43.7	12.42
38.4	-41.9	13.65
38.4	37.7	36.0838
38.4	64.2	41.4492
38.5	-45.6	12.36
38.5	41.5	32.7034
38.6	-47.4	14.81
38.7	-49.2	14.37
38.7	45.3	37.3485
38.7	67.4	40.11
38.8	-51.1	14.98
38.9	-52.9	14.99
39.0	-54.7	13.89
39.0	9.4	31.4926
39.0	12.9	35.0092
39.0	16.5	27.16
39.0	48.9	43.96
39.1	-25.6	15.99
39.1	-4.1	28.5839
39.1	-0.8	29.4
39.1	2.6	32.7923
39.1	6.0	33.93
39.1	20.1	14.7
39.1	23.8	29.7271
39.1	27.7	32.49
39.1	70.5	38.82
39.2	-56.6	14.1755
39.2	-10.4	31.4099
39.2	-7.3	28.7582
39.2	31.7	33.8611
39.3	-58.4	15.0116
39.3	-16.4	35.66
39.3	-13.4	38.9041
39.3	52.4	49.2263
39.4	-22.2	12.3143
39.4	-19.3	14.374
39.4	35.7	33.6114
39.5	-60.2	14.7887
39.6	55.9	49.31
39.7	-62.1	16.0166
39.7	39.6	36.4146
39.7	73.6	41.1
39.9	-27.6	16.6344
40.0	-63.9	15.1036
40.0	-29.5	16.84
40.0	43.4	40.01
40.0	59.3	42.99
40.1	-31.4	15.88
40.1	-2.5	27.6475
40.1	0.9	30.7413
40.1	4.3	36.3098
40.1	7.7	33.4264
40.1	11.1	25.245
40.1	14.7	23.3437
40.1	18.3	16.5163
40.1	21.9	33.7877
40.1	25.7	30.3079
40.2	-65.7	12.5554
40.2	-33.3	16.09
40.2	-8.9	21.3585
40.2	-5.7	23.8264
40.2	29.6	33.0011
40.3	-35.2	15.3713
40.3	-24.1	14.0085
40.3	-11.9	35.1546
40.3	47.0	40.4047
40.4	-37.0	15.65
40.4	-14.9	34.2794
40.4	33.7	34.8489
40.5	-38.9	14.23
40.5	-20.7	16.2597
40.5	-17.8	21.0
40.5	62.6	42.9721
40.6	-67.5	18.96
40.6	-40.8	13.37
40.6	76.6	37.62
40.7	37.6	32.3771
40.7	50.6	45.9873
40.8	-42.6	12.55
40.9	-69.4	35.9603
40.9	-44.5	11.7966
41.0	65.8	38.0088
41.1	-46.4	13.6362
41.1	-26.1	16.29
41.1	2.5	31.1029
41.1	6.0	35.2558
41.1	9.4	33.5895
41.1	12.9	24.53
41.1	16.4	17.65
41.1	20.1	36.6235
41.1	41.4	34.8559
41.1	54.1	47.35
41.2	-4.1	20.0
41.2	-0.8	27.9626
41.2	23.8	32.8617
41.2	27.6	31.2811
41.3	-48.2	14.03
41.3	-10.4	21.0
41.3	-7.3	11.0895
41.3	31.6	40.5465
41.4	-71.2	37.76
41.4	-22.6	11.7087
41.4	-13.4	19.9855
41.5	-50.1	14.72
41.5	-16.3	21.0
41.5	45.2	38.75
41.6	-19.2	16.9947
41.7	-52.0	14.01
41.7	35.6	32.5325
41.7	57.5	41.1046
41.8	68.9	40.09
41.9	-73.0	38.7
41.9	-28.1	16.6
41.9	79.6	36.1475
42.0	-53.8	13.83
42.0	-30.0	15.57
42.0	48.8	49.2649
42.1	-32.0	14.58
42.1	4.2	29.2207
42.1	7.7	35.791
42.1	11.1	25.85
42.1	14.6	20.4493
42.1	18.2	35.5128
42.1	21.9	36.0327
42.1	39.5	40.6874
42.2	-55.7	14.27
42.2	-2.5	18.11
42.2	0.8	27.5373
42.2	25.7	29.9608
42.3	-33.9	10.2673
42.3	-24.5	16.65
42.3	-5.7	17.61
42.3	29.6	39.5067
42.3	60.8	42.4676
42.4	-8.8	11.3825
42.5	-57.5	16.18
42.5	-35.8	9.624
42.5	-21.1	20.3459
42.5	-11.9	17.4865
42.5	52.3	49.64
42.6	-74.8	39.48
42.6	-37.7	14.09
42.6	-14.8	18.0
42.6	33.6	38.5615
42.6	43.2	37.2938
42.7	-17.7	24.0
42.8	-39.6	12.79
42.8	72.0	36.96
42.9	-59.3	17.29
43.0	-41.5	12.7
43.1	-26.5	14.74
43.1	5.9	38.834
43.1	9.4	27.4975
43.1	12.8	19.978
43.1	16.4	32.6928
43.1	20.0	39.0879
43.1	37.5	36.324
43.1	46.9	43.1154
43.1	64.1	39.1077
43.2	-0.8	20.377
43.2	2.5	31.3706
43.2	23.7	32.0
43.2	55.7	49.7196
43.3	-61.2	15.7677
43.3	-43.4	14.03
43.3	-4.1	12.7222
43.3	27.5	33.3423
43.4	-23.0	31.7761
43.4	-7.3	12.7257
43.4	31.5	39.54
43.5	-76.6	41.12
43.5	-45.2	12.5
43.5	-10.3	13.3448
43.6	-19.6	25.0999
43.6	-13.3	12.0116
43.6	41.3	40.4235
43.7	-63.0	15.62
43.7	-16.2	29.93
43.8	-47.1	14.42
43.8	50.5	47.34
43.9	-28.6	15.0166
43.9	59.1	43.81
44.0	-30.5	18.1231
44.0	35.5	39.5233
44.1	-49.0	14.07
44.1	7.6	40.0821
44.1	11.1	17.454
44.1	14.6	27.1307
44.1	18.1	40.4755
44.1	67.2	38.5397
44.2	-64.8	16.11
44.2	-32.5	19.003
44.2	-25.0	30.6521
44.2	0.8	20.4174
44.2	4.2	36.0967
44.2	21.8	37.0269
44.2	45.0	37.9331
44.2	75.0	37.26
44.2	82.6	19.9116
44.3	-2.5	17.98
44.3	25.6	32.69
44.4	-50.9	15.0043
44.4	-5.7	17.35
44.4	29.4	36.4624
44.5	-34.4	18.0
44.5	-21.4	28.3495
44.5	-8.8	16.06
44.5	39.3	53.2827
44.5	53.9	49.59
44.6	-78.4	40.91
44.6	-11.8	13.3524
44.7	-52.8	13.45
44.7	-36.3	18.0
44.7	-18.0	33.6572
44.7	-14.7	15.0394
44.8	-66.7	19.3854
44.8	33.4	37.0508
44.9	-38.3	13.38
44.9	48.6	45.12
44.9	62.3	39.3476
45.1	-54.6	15.18
45.1	-27.0	24.2025
45.1	9.3	29.4742
45.1	12.8	16.14
45.1	16.3	34.9982
45.2	-40.2	12.91
45.2	2.5	26.8881
45.2	5.9	39.0444
45.2	19.9	39.9997
45.2	43.1	41.1141
45.3	-0.8	18.0
45.3	23.6	35.95
45.4	-23.4	29.5513
45.4	-4.1	16.63
45.4	27.4	33.2167
45.4	37.3	43.3858
45.4	57.3	48.7009
45.4	70.3	39.36
45.5	-68.5	37.56
45.5	-42.1	13.29
45.5	-7.2	15.3
45.6	-56.5	15.97
45.6	-19.9	35.0629
45.6	-10.3	15.79
45.6	31.4	39.54
45.7	-16.5	32.261
45.7	52.1	47.27
45.8	-44.0	12.5
45.8	-13.2	16.2
45.9	-29.0	20.0
46.0	-58.3	17.0134
46.0	46.7	37.46
46.0	65.5	36.53
46.1	-45.9	12.5
46.1	-31.0	16.1534
46.1	7.6	29.1614
46.1	11.0	18.0518
46.1	14.5	28.3814
46.1	41.1	48.78
46.2	-80.2	41.21
46.2	-25.3	25.5003
46.2	4.2	32.7981
46.2	18.0	40.9971
46.2	21.7	38.6508
46.2	35.3	44.7806
46.2	78.0	37.65
46.3	0.8	18.8763
46.4	-70.3	37.36
46.4	-33.0	14.0
46.4	-2.5	14.7538
46.4	25.4	37.2303
46.4	60.6	39.6781
46.5	-47.8	14.2718
46.5	-21.8	33.55
46.5	-5.7	15.63
46.5	29.3	35.2298
46.6	-60.2	15.8688
46.6	-34.9	16.5846
46.6	-8.7	14.41
46.7	-18.3	36.907
46.7	-15.0	17.5725
46.7	55.5	49.63
46.8	-11.7	14.9028
46.8	50.2	38.4371
46.9	-49.7	14.04
46.9	-36.9	13.7
46.9	44.8	37.0747
47.0	33.2	40.7494
47.0	39.1	49.19
47.1	-27.4	19.5538
47.1	9.3	31.7892
47.1	12.7	13.5917
47.1	73.4	36.22
47.2	-62.0	15.836
47.2	2.5	17.1412
47.2	5.9	35.0776
47.2	16.2	36.9067
47.2	19.8	41.0417
47.3	-38.8	12.36
47.3	-0.8	16.64
47.3	23.5	39.0319
47.4	-72.1	38.58
47.4	-51.6	14.95
47.4	-23.7	31.5513
47.5	-4.1	15.81
47.5	27.3	39.0496
47.5	68.6	42.2018
47.6	-40.8	13.31
47.6	-20.2	33.94
47.6	-7.2	15.4
47.7	-16.8	42.0495
47.7	-10.2	15.6211
47.7	31.2	42.2261
47.7	37.1	47.4172
47.7	63.8	40.53
47.8	-13.5	16.01
47.8	42.8	41.5535
47.8	58.8	46.6248
47.9	-53.5	14.86
47.9	-29.4	12.0805
47.9	48.3	37.4698
47.9	53.6	47.76
48.0	-63.8	15.35
48.0	-42.7	13.02
48.1	10.9	30.7444
48.2	-31.4	14.23
48.2	4.2	24.7979
48.2	7.5	35.3585
48.2	14.4	30.0751
48.2	17.9	36.29
48.3	-25.7	15.56
48.3	0.8	17.7
48.3	21.5	41.7845
48.4	-55.3	14.92
48.4	-44.6	13.9
48.4	-2.5	16.92
48.4	25.3	38.5991
48.5	-82.0	41.48
48.5	-33.4	13.95
48.5	-22.1	15.4109
48.5	35.1	49.42
48.6	-73.9	39.58
48.6	-5.6	15.82
48.6	29.1	44.6011
48.6	40.8	48.96
48.7	-18.6	30.91
48.7	-15.2	35.5429
48.7	-8.7	15.2184
48.8	-65.7	20.5824
48.8	-46.5	13.8354
48.8	-11.9	18.04
48.8	46.4	39.2649
48.9	-35.4	13.98
48.9	51.8	42.76
49.0	-57.2	16.23
49.1	-27.7	12.7939
49.1	33.0	46.8229
49.1	57.0	47.9437
49.2	-37.4	12.58
49.2	5.8	18.58
49.2	9.2	35.9235
49.2	12.6	13.18
49.2	16.1	34.8931
49.2	19.6	43.2923
49.2	62.0	39.3018
49.3	-48.4	13.92
49.3	2.5	17.4
49.3	66.9	39.0132
49.4	-24.0	15.45
49.4	-0.8	15.93
49.4	23.3	37.8907
49.4	38.9	44.9
49.4	71.6	40.7
49.5	-4.0	15.97
49.5	27.1	38.7686
49.5	76.3	36.32
49.6	-39.3	13.44
49.6	-20.5	14.71
49.6	44.5	35.8002
49.6	80.9	34.5367
49.6	85.5	14.5483
49.7	-59.1	17.28
49.7	-17.0	22.6044
49.7	-7.1	14.61
49.8	-67.5	27.7114
49.8	-13.7	25.48
49.8	-10.4	14.51
49.8	31.0	45.369
49.9	-50.3	14.24
49.9	-29.8	14.2969
49.9	49.9	40.2676
50.1	-75.7	39.34
50.1	-41.3	13.1829
50.1	36.8	44.7698
50.2	7.5	13.5714
50.2	10.8	31.5772
50.2	14.3	11.77
50.2	17.8	37.2191
50.2	55.1	48.28
50.3	-31.8	11.1752
50.3	-26.0	15.2
50.3	4.1	20.0722
50.3	21.4	40.0178
50.4	-52.2	14.23
50.4	0.8	16.06
50.4	42.5	39.9758
50.5	-60.9	16.2
50.5	-43.2	13.92
50.5	-22.4	15.64
50.5	-2.4	16.06
50.5	25.1	35.8469
50.5	60.2	40.1444
50.7	-33.8	14.24
50.7	-18.9	15.12
50.7	-8.8	15.02
50.7	-5.6	15.9
50.7	28.9	43.2835
50.7	34.8	48.67
50.8	-15.4	21.0319
50.8	-12.1	15.8896
50.8	48.0	39.4995
50.9	-69.3	37.1529
50.9	65.1	40.32
51.0	-45.2	13.36
51.1	-54.1	13.8
51.1	-35.8	13.82
51.1	-28.1	14.7315
51.1	40.5	46.78
51.2	5.8	18.4446
51.2	9.1	28.7375
51.2	12.5	20.11
51.2	15.9	26.15
51.2	53.3	43.49
51.3	2.5	16.06
51.3	19.5	38.7786
51.3	32.8	52.64
51.4	-62.7	15.99
51.4	-24.3	15.04
51.4	23.1	34.7458
51.4	69.9	44.1211
51.5	-37.8	12.5863
51.5	-0.8	12.9037
51.5	46.1	37.6758
51.6	-47.1	13.39
51.6	-20.7	15.75
51.6	-4.0	16.01
51.6	26.9	41.0664
51.7	-17.2	15.59
51.7	-7.2	15.46
51.7	58.4	40.2198
51.8	-56.0	14.97
51.8	-13.8	15.03
51.8	-10.5	14.5
51.8	38.5	42.87
51.9	30.7	47.3526
52.0	-39.8	12.8998
52.0	-30.1	14.85
52.1	-83.8	42.8806
52.1	-77.5	37.38
52.1	51.4	40.6951
52.1	74.6	39.75
52.2	-49.0	14.01
52.2	7.4	18.3851
52.2	10.7	19.28
52.2	14.1	11.1485
52.2	17.6	34.3257
52.2	63.3	38.3568
52.3	-71.1	37.2039
52.3	-26.3	10.0992
52.3	4.1	16.93
52.3	21.2	37.5085
52.3	44.1	35.71
52.4	-64.5	13.9244
52.4	-32.2	10.2473
52.4	0.8	16.04
52.4	36.5	46.0398
52.5	-41.7	13.53
52.5	-22.7	14.76
52.5	24.9	33.7672
52.6	-57.8	16.22
52.6	-2.4	15.86
52.7	-19.1	14.82
52.7	-5.6	10.8396
52.7	56.5	39.8689
52.8	-15.6	15.4791
52.8	-12.2	15.63
52.8	-8.9	15.23
52.8	28.7	42.9613
52.9	-50.9	14.1439
52.9	-34.2	14.2
52.9	34.5	39.5069
52.9	42.2	39.6313
52.9	49.5	36.45
53.0	68.1	42.75
53.1	-43.7	13.65
53.2	-28.4	11.5713
53.2	9.0	19.63
53.2	12.4	16.42
53.2	15.8	12.7807
53.2	79.2	37.03
53.3	5.7	9.88
53.3	19.3	35.2309
53.4	-36.2	13.2582
53.4	-24.6	14.94
53.4	2.4	16.04
53.4	22.9	37.4563
53.4	61.5	39.1155
53.5	-59.7	17.1894
53.5	-0.8	15.85
53.5	32.5	49.71
53.5	40.2	44.38
53.6	-66.4	28.64
53.6	-52.8	14.22
53.6	-21.0	13.5196
53.6	26.6	37.735
53.6	47.6	40.2964
53.6	54.7	44.3401
53.7	-45.6	13.0351
53.7	-17.4	14.6995
53.7	-7.3	14.86
53.7	-4.1	11.3246
53.8	-14.0	14.9943
53.8	-10.6	14.61
53.9	-72.8	38.614
53.9	-38.2	14.12
53.9	30.5	54.0111
54.1	-30.5	14.27
54.1	38.2	43.96
54.1	72.8	43.597
54.2	10.6	17.0977
54.2	14.0	12.48
54.3	4.1	13.2996
54.3	7.3	16.16
54.3	17.4	35.1138
54.3	45.6	38.12
54.4	-54.7	15.7003
54.4	-47.6	14.83
54.4	-26.6	15.35
54.4	21.0	39.0701
54.4	52.8	40.426
54.4	66.4	44.6015
54.5	-40.2	14.35
54.5	-32.5	13.7626
54.5	0.8	14.5211
54.5	59.7	39.6477
54.6	-61.5	16.01
54.6	-22.9	13.8649
54.6	-2.4	14.18
54.6	24.6	37.5575
54.6	36.2	40.0307
54.7	-19.3	14.4
54.7	-5.7	14.1208
54.8	-79.2	39.67
54.8	-15.8	8.8318
54.8	-12.4	14.61
54.8	-9.0	13.98
54.8	28.4	50.84
54.9	43.7	36.2189
55.0	-68.1	38.1101
55.1	-49.5	12.9973
55.1	-42.2	14.1229
55.1	-34.5	7.6836
55.1	34.2	37.9888
55.1	50.9	41.4038
55.2	-28.7	15.03
55.2	8.9	15.28
55.2	12.2	13.782
55.2	15.6	12.87
55.3	-56.5	14.9
55.3	5.6	14.91
55.3	19.1	33.9494
55.4	2.4	14.98
55.4	57.8	39.2608
55.5	-24.9	14.68
55.5	22.7	40.1047
55.5	41.7	34.9
55.6	-36.5	14.02
55.6	-0.8	14.09
55.6	32.2	41.942
55.6	64.5	39.0014
55.7	-44.1	15.19
55.7	-21.2	17.0
55.7	-4.1	14.67
55.7	26.3	38.5474
55.7	71.1	43.2486
55.8	-63.3	15.8454
55.8	-17.6	14.57
55.8	-14.1	14.27
55.8	-10.7	13.98
55.8	-7.4	14.0
55.8	49.0	40.8808
55.9	-74.6	40.15
55.9	-51.4	14.08
55.9	77.5	38.3332
55.9	83.8	16.3943
56.0	30.1	46.01
56.0	39.8	41.0467
56.1	-30.7	14.4331
56.2	-38.5	14.6438
56.2	10.5	13.5652
56.2	13.8	13.28
56.2	56.0	38.1653
56.3	-58.4	16.12
56.3	7.2	14.45
56.3	17.2	19.3876
56.4	-26.9	13.7282
56.4	4.0	14.81
56.4	20.7	34.6607
56.4	47.1	40.7529
56.5	-46.1	15.2
56.5	0.8	14.2
56.5	37.8	42.2298
56.6	-69.9	39.36
56.6	-23.1	13.1673
56.6	24.3	42.9469
56.6	62.7	38.1431
56.7	-32.8	12.1977
56.7	-19.5	15.05
56.7	-2.5	14.36
56.8	-53.3	14.58
56.8	-15.9	14.44
56.8	-12.5	14.35
56.8	-9.1	13.47
56.8	-5.8	18.0
56.9	-40.5	14.83
56.9	28.1	50.21
56.9	35.8	39.4802
56.9	54.1	39.2438
57.0	45.2	38.5388
57.1	-65.1	18.96
57.1	69.3	41.7363
57.2	-48.0	14.5168
57.2	12.1	13.59
57.2	15.4	14.71
57.3	-34.8	12.8945
57.3	-28.9	12.0183
57.3	5.6	14.25
57.3	8.8	13.4785
57.3	18.9	18.95
57.3	33.8	42.4678
57.5	-60.2	15.1561
57.5	-25.1	14.3
57.5	2.4	14.63
57.5	22.4	36.6534
57.5	43.2	35.7004
57.5	60.9	39.39
57.6	-42.5	14.1901
57.6	-0.8	14.5336
57.6	52.2	41.35
57.7	-21.4	14.2664
57.7	-4.1	13.4
57.7	26.0	41.6779
57.7	31.8	38.7994
57.8	-55.1	14.3819
57.8	-17.8	15.0811
57.8	-14.3	14.15
57.8	-10.8	14.06
57.8	-7.5	14.5686
57.9	-36.8	14.7201
57.9	41.3	33.59
57.9	75.7	42.81
58.1	-49.9	14.0474
58.1	29.8	45.66
58.1	50.3	46.8691
58.2	-31.0	12.1648
58.2	10.4	13.6
58.2	13.7	13.84
58.2	67.5	40.9459
58.3	7.1	13.41
58.3	17.0	13.74
58.3	59.1	44.1923
58.4	-85.5	43.24
58.4	-80.9	39.09
58.4	-44.5	14.65
58.4	20.5	25.76
58.4	39.3	36.8102
58.5	-76.3	40.39
58.5	-27.1	13.7204
58.5	4.0	14.38
58.6	-71.6	35.6053
58.6	-38.9	14.3133
58.6	-23.3	14.59
58.6	0.8	14.56
58.6	24.0	13.9267
58.7	-66.9	28.4258
58.7	-2.5	14.3
58.7	48.4	40.5818
58.8	-62.0	15.75
58.8	-19.6	16.0
58.8	-16.1	11.2708
58.8	-12.6	14.14
58.8	-9.2	10.0
58.8	-5.8	12.88
58.8	37.4	39.1816
58.9	-57.0	14.85
58.9	-33.0	13.9298
58.9	27.7	47.24
59.0	57.2	41.4257
59.1	-51.8	14.68
59.1	35.4	38.8162
59.2	-46.4	14.8689
59.2	11.9	13.9793
59.2	46.5	43.8874
59.2	65.7	45.1157
59.3	8.7	12.8392
59.3	15.2	14.63
59.3	18.6	11.55
59.4	-40.8	13.9413
59.4	-29.1	11.253
59.4	5.6	13.72
59.4	73.9	42.29
59.5	-35.1	14.7651
59.5	22.1	27.2
59.5	33.4	40.9055
59.5	82.0	28.86
59.6	-25.3	14.97
59.6	2.5	14.56
59.6	44.6	39.9932
59.6	55.3	39.1861
59.7	-21.5	14.16
59.7	-0.8	14.58
59.7	25.7	39.17
59.8	-17.9	18.0551
59.8	-14.4	14.67
59.8	-7.5	14.23
59.8	-4.2	13.15
59.8	31.4	35.9408
59.9	-10.9	13.8845
60.0	42.7	36.71
60.0	63.8	49.58
60.1	-53.6	14.74
60.1	-48.3	14.3015
60.1	29.4	40.6013
60.1	53.5	43.25
60.2	-58.8	16.02
60.2	-42.8	14.96
60.2	13.5	16.28
60.3	-63.8	15.38
60.3	-37.1	12.6836
60.3	-31.2	14.01
60.3	10.2	14.4
60.3	16.8	15.9242
60.4	7.2	13.33
60.4	20.2	15.0
60.4	40.8	34.96
60.5	-68.6	38.4283
60.5	-27.3	14.0148
60.5	4.1	13.99
60.6	23.7	11.6724
60.6	51.6	44.2154
60.6	72.1	36.73
60.7	-23.5	14.48
60.7	0.8	14.61
60.7	38.8	42.18
60.8	-19.8	13.84
60.8	-16.2	18.0375
60.8	-5.9	11.01
60.8	-2.5	14.4
60.8	62.0	45.3
60.9	-73.4	41.02
60.9	-12.7	14.0216
60.9	-9.3	18.0
60.9	27.4	43.6965
61.0	-39.1	14.1078
61.0	-33.2	11.86
61.1	-44.8	14.86
61.1	36.9	41.21
61.1	49.7	47.2276
61.2	-50.2	14.57
61.2	11.7	15.37
61.3	-55.5	14.62
61.3	15.0	16.13
61.3	18.3	14.302
61.4	8.7	14.29
61.4	34.9	37.45
61.4	60.2	42.07
61.5	-29.3	13.92
61.5	5.7	13.22
61.5	21.8	13.54
61.5	47.8	46.9073
61.6	-60.6	15.5702
61.6	-25.4	14.89
61.6	2.5	14.12
61.6	33.0	38.4479
61.6	70.3	41.3603
61.7	-0.8	14.53
61.8	-78.0	40.25
61.8	-35.3	13.2595
61.8	-21.7	14.03
61.8	-18.0	13.75
61.8	-4.2	13.18
61.8	25.3	36.83
61.8	80.2	39.65
61.9	-41.1	14.4356
61.9	-14.5	15.3711
61.9	-11.0	17.9024
61.9	-7.6	13.52
61.9	31.0	37.6806
61.9	45.9	42.45
62.0	-65.5	17.63
62.0	-46.7	15.0604
62.0	58.3	41.88
62.1	29.0	42.6683
62.2	13.2	16.1251
62.2	44.0	41.3708
62.3	-52.1	14.63
62.3	16.5	11.8438
62.4	-31.4	11.83
62.4	10.3	15.43
62.4	19.9	15.52
62.4	56.5	41.36
62.5	7.2	14.099
62.5	42.1	37.51
62.5	68.5	40.6421
62.6	-70.3	38.4889
62.6	-57.3	14.75
62.6	-37.3	12.4488
62.6	-27.4	14.1241
62.6	4.1	13.13
62.6	23.4	11.8285
62.7	-23.6	14.22
62.7	0.8	14.23
62.8	-43.1	12.7095
62.8	-19.9	12.8
62.8	-5.9	13.7
62.8	-2.5	14.44
62.8	40.2	37.66
62.9	-16.3	12.9896
62.9	-12.8	14.0
62.9	-9.3	12.0215
62.9	27.0	41.0132
62.9	54.6	41.91
63.1	-62.3	15.2396
63.1	-48.6	13.87
63.1	38.3	41.49
63.2	-33.4	12.3743
63.2	66.7	44.94
63.3	14.7	16.9603
63.3	18.0	16.566
63.3	36.3	39.15
63.3	52.8	39.68
63.4	11.8	15.31
63.4	78.4	39.49
63.5	-53.9	15.6041
63.5	-39.3	12.7973
63.5	8.8	15.5
63.5	21.4	16.23
63.5	34.4	44.2738
63.6	-29.4	12.1512
63.6	5.7	12.8486
63.6	50.9	39.7385
63.7	-25.6	14.66
63.7	2.5	13.61
63.8	-82.6	42.57
63.8	-75.0	39.75
63.8	-45.0	11.7739
63.8	-21.8	13.73
63.8	-4.2	13.83
63.8	-0.8	14.3
63.8	25.0	14.93
63.8	32.5	39.1345
63.8	64.8	39.75
63.9	-67.2	27.274
63.9	-18.1	13.4489
63.9	-14.6	13.72
63.9	-11.1	15.0
63.9	-7.6	13.99
63.9	49.0	47.8048
64.0	-35.5	13.1065
64.0	30.5	45.7817
64.1	-59.1	16.69
64.1	28.6	47.08
64.2	-50.5	13.078
64.2	47.1	48.09
64.3	16.2	16.69
64.3	63.0	40.1446
64.4	-41.3	13.8736
64.4	13.3	15.8109
64.4	19.6	16.23
64.5	10.3	15.3782
64.5	45.2	37.9763
64.5	76.6	39.91
64.6	-31.5	11.6159
64.6	7.3	14.4521
64.6	23.0	14.35
64.7	-27.5	12.5079
64.7	4.1	13.71
64.7	43.4	41.4377
64.7	61.2	39.5078
64.8	-55.7	14.83
64.8	-23.7	14.06
64.8	-2.5	14.21
64.8	0.8	13.94
64.9	-64.1	18.72
64.9	-46.9	14.6678
64.9	-37.5	13.1663
64.9	-20.0	12.544
64.9	-16.4	12.8056
64.9	-12.8	13.65
64.9	-9.4	13.84
64.9	-5.9	13.6
64.9	26.5	42.9586
65.0	41.5	37.1654
65.1	59.3	37.1796
65.2	-72.0	39.86
65.2	39.6	38.35
65.3	17.7	12.3637
65.4	-43.2	14.52
65.4	-33.6	14.639
65.4	14.8	12.6339
65.4	37.7	39.35
65.4	74.8	39.66
65.5	-52.3	15.36
65.5	11.9	15.2372
65.5	21.1	12.49
65.5	35.8	39.1608
65.5	57.5	39.2431
65.6	8.8	15.51
65.7	-60.8	16.51
65.7	-29.6	13.7956
65.7	5.7	14.1817
65.7	24.5	33.0243
65.7	33.9	48.16
65.8	-25.7	14.4
65.8	-0.8	13.8
65.8	2.5	12.97
65.8	55.7	40.5215
65.9	-39.5	13.5787
65.9	-21.9	13.36
65.9	-18.2	12.3642
65.9	-14.6	13.134
65.9	-11.1	13.4
65.9	-7.7	13.56
65.9	-4.2	13.49
65.9	32.0	50.53
66.0	-48.8	19.1607
66.0	30.0	48.8021
66.0	53.8	39.6434
66.1	-79.6	42.22
66.1	28.1	42.005
66.1	73.0	36.19
66.2	-68.9	31.1785
66.3	-57.5	15.05
66.3	-35.6	12.9144
66.3	52.0	39.5947
66.4	19.2	15.97
66.5	-45.2	14.68
66.5	16.3	15.7
66.5	50.1	40.8984
66.6	13.4	16.06
66.6	22.6	22.4731
66.6	71.2	36.7
66.7	-31.6	10.2874
66.7	7.3	14.58
66.7	10.4	15.37
66.7	48.2	41.2728
66.8	-27.6	13.71
66.8	-23.8	13.9
66.8	0.8	13.24
66.8	4.1	13.8
66.9	-54.1	15.18
66.9	-41.4	14.0857
66.9	-20.1	12.93
66.9	-16.4	13.12
66.9	-12.9	12.92
66.9	-9.4	13.44
66.9	-6.0	10.79
66.9	-2.5	13.6548
66.9	26.1	37.5309
66.9	46.4	39.1022
67.0	-65.8	18.22
67.1	44.5	41.3438
67.1	69.4	41.2335
67.2	42.6	41.1829
67.3	-50.6	20.0
67.3	-37.6	13.5256
67.4	-76.6	40.49
67.4	40.8	45.17
67.4	67.5	40.26
67.5	-62.6	18.14
67.5	17.8	12.5694
67.5	20.7	10.6096
67.5	38.9	45.4789
67.6	-33.7	14.53
67.6	14.9	15.99
67.6	37.0	36.03
67.7	-47.0	19.0094
67.7	11.9	15.31
67.7	24.1	33.4381
67.7	35.2	44.61
67.8	-29.6	12.8324
67.8	5.7	14.1
67.8	8.9	14.3794
67.8	33.3	49.34
67.8	65.7	39.6656
67.9	-25.7	13.9
67.9	-21.9	13.06
67.9	-18.3	13.1
67.9	-14.7	13.1
67.9	-11.1	13.46
67.9	-7.7	12.93
67.9	-4.3	13.02
67.9	-0.9	12.95
67.9	2.5	13.26
67.9	31.4	46.8108
68.0	-59.3	17.51
68.0	-43.4	14.13
68.0	29.5	39.4019
68.0	63.9	38.0155
68.1	27.6	41.8448
68.3	-73.6	39.1671
68.3	-39.6	12.879
68.3	62.1	38.2197
68.4	-55.9	15.09
68.5	60.2	38.464
68.6	-35.7	14.46
68.6	19.3	12.5895
68.6	22.2	28.5504
68.7	-52.4	14.93
68.7	13.4	16.13
68.7	16.4	14.57
68.7	58.4	39.1926
68.8	-31.7	11.3868
68.8	7.3	14.63
68.8	10.4	15.45
68.8	56.6	39.5738
68.9	-70.5	33.3025
68.9	-27.7	13.89
68.9	-23.8	13.21
68.9	-20.1	12.63
68.9	-6.0	12.94
68.9	-2.6	13.38
68.9	0.8	13.77
68.9	4.1	13.82
68.9	25.6	36.5168
69.0	-48.9	17.9611
69.0	-16.5	13.47
69.0	-12.9	13.74
69.0	-9.4	13.7
69.0	54.7	40.16
69.1	52.9	43.2015
69.2	51.1	41.442
69.3	-67.4	29.93
69.3	-45.3	14.43
69.3	49.2	46.4878
69.4	47.4	40.3481
69.5	-41.5	14.2
69.5	45.6	39.818
69.6	-64.2	16.12
69.6	-37.7	14.103
69.6	41.9	49.166
69.6	43.7	45.01
69.7	20.7	28.51
69.7	23.6	33.0015
69.7	40.0	48.9651
69.8	-33.7	9.6354
69.8	11.9	14.36
69.8	14.9	14.92
69.8	17.8	15.34
69.8	36.3	45.7318
69.8	38.2	47.71
69.9	-61.0	15.0793
69.9	-29.7	13.4279
69.9	-25.8	13.2
69.9	-22.0	12.95
69.9	-0.9	13.7
69.9	2.5	13.8644
69.9	5.8	13.994
69.9	8.9	14.6
69.9	32.7	42.6844
69.9	34.5	51.86
70.0	-18.3	13.76
70.0	-14.7	13.81
70.0	-11.2	13.79
70.0	-7.7	13.83
70.0	-4.3	13.53
70.0	29.0	38.4913
70.0	30.8	41.9314
70.1	-57.6	12.0052
70.1	27.1	37.1453
70.3	-54.2	14.32
70.4	-50.7	20.106
70.6	-47.1	20.0
70.7	-43.4	13.7778
70.8	-39.6	14.25
70.8	25.1	35.1267
70.9	-35.7	13.7128
70.9	-31.7	14.3348
70.9	7.3	14.08
70.9	10.4	13.99
70.9	13.4	14.09
70.9	16.4	14.21
70.9	19.3	25.799
70.9	22.2	36.6673
71.0	-27.7	13.51
71.0	-23.9	13.4
71.0	-20.1	13.4
71.0	-16.5	14.41
71.0	-12.9	13.68
71.0	-9.4	12.55
71.0	-6.0	13.6583
71.0	-2.6	13.5987
71.0	0.8	13.8393
71.0	4.2	13.3967
72.0	-87.1	40.57
72.0	-84.1	43.0382
72.0	-81.2	43.42
72.0	-78.2	43.81
72.0	-75.2	39.03
72.0	-72.1	40.08
72.0	-69.0	31.1492
72.0	-65.8	17.94
72.0	-62.6	15.378
72.0	-59.3	14.2275
72.0	-55.9	14.11
72.0	-52.5	23.0703
72.0	-48.9	16.8977
72.0	-45.3	14.48
72.0	-41.5	7.98
72.0	-37.7	14.19
72.0	-33.7	13.4279
72.0	-29.7	13.9157
72.0	-25.8	13.42
72.0	-22.0	14.2771
72.0	-18.3	13.6889
72.0	-14.7	13.4442
72.0	-11.2	14.66
72.0	-7.7	12.18
72.0	-4.3	17.0
72.0	-0.9	13.2797
72.0	2.5	11.8357
72.0	5.8	21.9278
72.0	8.9	12.1537
72.0	11.9	19.31
72.0	14.9	19.2647
72.0	17.8	29.8764
72.0	20.7	35.6309
72.0	23.6	35.7572
72.0	26.6	35.8564
72.0	28.4	37.2823
72.0	30.2	39.0106
72.0	32.0	44.25
72.0	33.8	47.4301
72.0	35.6	64.8045
72.0	37.4	58.9917
72.0	39.3	55.19
72.0	41.1	49.06
72.0	42.9	54.6623
72.0	44.7	42.5872
72.0	46.5	42.0216
72.0	48.3	45.07
72.0	50.1	44.59
72.0	51.9	45.65
72.0	53.8	38.6277
72.0	55.6	38.8199
72.0	57.4	38.2461
72.0	59.2	37.4404
72.0	61.0	37.3889
72.0	62.8	37.5622
72.0	64.6	38.1571
72.0	66.4	39.3014
72.0	68.3	41.0043
72.0	70.1	38.46
72.0	71.9	39.43
72.0	73.7	39.5909
72.0	75.5	33.75
72.0	77.3	35.09
72.0	79.1	36.31
72.0	80.9	36.58
72.0	82.8	24.9938
72.0	84.6	15.6968
72.0	86.4	13.0153
72.0	88.2	16.2843
73.0	-27.7	13.12
73.0	-23.9	13.1551
73.0	-20.1	14.65
73.0	-16.5	14.809
73.0	-12.9	15.02
73.0	-9.4	14.8
73.0	-6.0	12.9727
73.0	-2.6	10.8947
73.0	0.8	21.6971
73.0	4.2	17.9763
73.1	-35.7	14.11
73.1	-31.7	13.88
73.1	7.3	12.21
73.1	10.4	21.1491
73.1	13.4	20.3546
73.1	16.4	33.5038
73.1	19.3	37.8935
73.1	22.2	38.2199
73.2	-39.6	14.06
73.2	25.1	35.4171
73.3	-43.4	13.1681
73.4	-47.1	13.54
73.6	-50.7	20.3428
73.7	-54.2	13.0
73.9	-57.6	13.1
73.9	27.1	35.4771
74.0	-18.3	14.57
74.0	-14.7	12.2832
74.0	-11.2	15.03
74.0	-7.7	15.02
74.0	-4.3	14.9358
74.0	29.0	45.87
74.0	30.8	37.2143
74.1	-61.0	12.9799
74.1	-29.7	13.2
74.1	-25.8	13.81
74.1	-22.0	14.3598
74.1	-0.9	13.57
74.1	2.5	13.3
74.1	5.8	13.483
74.1	8.9	13.4846
74.1	32.7	43.0668
74.1	34.5	55.639
74.2	-33.7	13.6628
74.2	11.9	28.77
74.2	14.9	34.97
74.2	17.8	40.4785
74.2	36.3	56.14
74.2	38.2	56.1711
74.3	20.7	37.6078
74.3	23.6	34.6925
74.3	40.0	51.56
74.4	-64.2	17.4
74.4	-37.7	13.9983
74.4	41.9	50.8793
74.4	43.7	51.97
74.5	-41.5	13.69
74.5	45.6	40.5395
74.6	47.4	42.5024
74.7	-67.4	24.0
74.7	-45.3	13.51
74.7	49.2	46.51
74.8	51.1	43.67
74.9	52.9	41.191
75.0	-48.9	13.62
75.0	-16.5	14.8544
75.0	-12.9	15.11
75.0	-9.4	14.3071
75.0	54.7	38.0827
75.1	-70.5	34.136
75.1	-27.7	13.66
75.1	-23.8	14.18
75.1	-20.1	14.2073
75.1	-6.0	15.05
75.1	-2.6	12.0142
75.1	0.8	13.3585
75.1	4.1	12.49
75.1	25.6	34.17
75.2	-31.7	13.38
75.2	7.3	13.06
75.2	10.4	32.5907
75.2	56.6	37.6613
75.3	-52.4	21.5318
75.3	13.4	38.88
75.3	16.4	38.5569
75.3	58.4	37.1562
75.4	-35.7	13.78
75.4	19.3	39.3086
75.4	22.2	35.7089
75.5	60.2	37.1181
75.6	-55.9	13.32
75.7	-73.6	40.12
75.7	-39.6	13.6
75.7	62.1	37.5162
75.9	27.6	35.7585
76.0	-59.3	21.0
76.0	-43.4	13.4
76.0	29.5	40.8844
76.0	63.9	37.7469
76.1	-25.7	14.04
76.1	-21.9	14.3808
76.1	-18.3	14.78
76.1	-14.7	15.15
76.1	-11.1	15.0788
76.1	-7.7	15.06
76.1	-4.3	15.026
76.1	-0.9	15.59
76.1	2.5	13.328
76.1	31.4	51.6208
76.2	-29.6	13.4256
76.2	5.7	13.53
76.2	8.9	30.8886
76.2	33.3	53.3359
76.2	65.7	39.0947
76.3	-47.0	14.0777
76.3	11.9	42.95
76.3	24.1	38.23
76.3	35.2	64.3
76.4	-33.7	13.17
76.4	14.9	38.6894
76.4	37.0	54.0463
76.5	-62.6	14.75
76.5	17.8	39.3819
76.5	20.7	36.7566
76.5	38.9	47.1295
76.6	-76.6	40.59
76.6	40.8	53.3183
76.6	67.5	41.008
76.7	-50.6	13.08
76.7	-37.6	13.34
76.8	42.6	56.85
76.9	44.5	41.5062
76.9	69.4	41.06
77.0	-65.8	17.23
77.1	-54.1	20.9991
77.1	-41.4	6.9941
77.1	-20.1	14.56
77.1	-16.4	13.6778
77.1	-12.9	13.4755
77.1	-9.4	14.947
77.1	-6.0	15.06
77.1	-2.5	14.8403
77.1	26.1	34.8764
77.1	46.4	42.3172
77.2	-27.6	14.21
77.2	-23.8	14.5
77.2	0.8	15.2307
77.2	4.1	14.03
77.3	-31.6	12.97
77.3	7.3	26.3562
77.3	10.4	38.37
77.3	48.2	45.04
77.4	13.4	37.5711
77.4	22.6	42.28
77.4	71.2	40.42
77.5	-45.2	13.15
77.5	16.3	38.9052
77.5	50.1	43.4583
77.6	19.2	39.1462
77.7	-57.5	19.7264
77.7	-35.6	13.02
77.7	52.0	40.5263
77.8	-68.9	31.1782
77.9	-79.6	44.56
77.9	28.1	40.8075
77.9	73.0	41.91
78.0	-48.8	14.2
78.0	30.0	49.0079
78.0	53.8	37.4291
78.1	-39.5	12.41
78.1	-21.9	13.5344
78.1	-18.2	15.21
78.1	-14.6	15.03
78.1	-11.1	9.5801
78.1	-7.7	14.2179
78.1	-4.2	14.9493
78.1	32.0	58.9577
78.2	-25.7	14.3245
78.2	-0.8	15.7
78.2	2.5	14.71
78.2	55.7	38.0764
78.3	-60.8	13.91
78.3	-29.6	13.86
78.3	5.7	13.788
78.3	24.5	42.0505
78.3	33.9	60.45
78.4	8.8	33.0323
78.5	-52.3	12.58
78.5	11.9	40.634
78.5	21.1	38.75
78.5	35.8	63.51
78.5	57.5	37.4301
78.6	-43.2	13.23
78.6	-33.6	13.01
78.6	14.8	36.2002
78.6	37.7	44.67
78.6	74.8	35.03
78.7	17.7	35.7045
78.8	-72.0	39.1
78.8	39.6	38.08
78.9	59.3	38.0246
79.0	41.5	50.4567
79.1	-64.1	16.51
79.1	-46.9	13.29
79.1	-37.5	11.9068
79.1	-20.0	15.0
79.1	-16.4	15.01
79.1	-12.8	13.9852
79.1	-9.4	14.482
79.1	-5.9	16.05
79.1	26.5	40.19
79.2	-55.7	13.95
79.2	-23.7	14.3372
79.2	-2.5	14.6055
79.2	0.8	15.67
79.3	-27.5	14.12
79.3	4.1	16.2365
79.3	43.4	54.96
79.3	61.2	37.3167
79.4	-31.5	13.59
79.4	7.3	30.0
79.4	23.0	49.5521
79.5	10.3	38.3598
79.5	45.2	46.99
79.5	76.6	34.64
79.6	-41.3	12.76
79.6	13.3	36.9725
79.6	19.6	37.004
79.7	16.2	37.662
79.7	63.0	37.5805
79.8	-50.5	13.58
79.8	47.1	42.998
79.9	-59.1	23.0
79.9	28.6	45.7412
80.0	-35.5	12.049
80.0	30.5	56.5433
80.1	-67.2	30.195
80.1	-18.1	15.09
80.1	-14.6	15.02
80.1	-11.1	15.05
80.1	-7.6	12.1798
80.1	49.0	41.9977
80.2	-82.6	44.8
80.2	-75.0	39.44
80.2	-45.0	13.22
80.2	-21.8	15.38
80.2	-4.2	15.9742
80.2	-0.8	15.6317
80.2	25.0	44.9167
80.2	32.5	55.5
80.2	64.8	39.9119
80.3	-25.6	14.05
80.3	2.5	16.2382
80.4	-29.4	11.4675
80.4	5.7	10.03
80.4	50.9	41.64
80.5	-53.9	14.35
80.5	-39.3	13.28
80.5	8.8	37.8453
80.5	21.4	42.1063
80.5	34.4	59.45
80.6	11.8	20.01
80.6	78.4	35.9
80.7	14.7	28.0
80.7	18.0	35.13
80.7	36.3	56.36
80.7	52.8	40.5451
80.8	-33.4	13.5
80.8	66.7	40.7256
80.9	-62.3	12.3702
80.9	-48.6	14.53
80.9	38.3	40.49
81.1	-16.3	15.27
81.1	-12.8	14.97
81.1	-9.3	14.85
81.1	27.0	39.5434
81.1	54.6	40.9049
81.2	-43.1	13.102
81.2	-19.9	15.0
81.2	-5.9	14.9752
81.2	-2.5	15.84
81.2	40.2	41.05
81.3	-23.6	14.58
81.3	0.8	16.53
81.4	-70.3	38.1
81.4	-57.3	13.6
81.4	-37.3	13.57
81.4	-27.4	13.9292
81.4	4.1	17.2223
81.4	23.4	45.1591
81.5	7.2	25.6214
81.5	42.1	54.3968
81.5	68.5	42.8851
81.6	-31.4	12.3953
81.6	10.3	19.57
81.6	19.9	34.791
81.6	56.5	39.3353
81.7	-52.1	14.14
81.7	16.5	34.0623
81.8	13.2	20.39
81.8	44.0	51.61
81.9	29.0	50.94
82.0	-65.5	25.0127
82.0	-46.7	14.43
82.0	58.3	38.8735
82.1	-41.1	12.85
82.1	-14.5	14.72
82.1	-11.0	15.03
82.1	-7.6	15.02
82.1	31.0	53.78
82.1	45.9	43.3628
82.2	-78.0	41.21
82.2	-35.3	13.6449
82.2	-21.7	14.93
82.2	-18.0	15.32
82.2	-4.2	12.835
82.2	25.3	46.8348
82.2	80.2	36.71
82.3	-0.8	16.56
82.4	-60.6	22.8358
82.4	-25.4	14.38
82.4	2.5	16.409
82.4	33.0	60.8158
82.4	70.3	43.6416
82.5	-29.3	12.6738
82.5	5.7	12.7121
82.5	21.8	39.96
82.5	47.8	46.5477
82.6	8.7	16.1643
82.6	34.9	65.78
82.6	60.2	38.9885
82.7	-55.5	15.34
82.7	15.0	20.23
82.7	18.3	34.38
82.8	-50.2	14.02
82.8	11.7	20.54
82.9	-44.8	13.28
82.9	36.9	47.476
82.9	49.7	45.6922
83.0	-39.1	13.37
83.0	-33.2	13.2904
83.1	-73.4	39.41
83.1	-12.7	14.41
83.1	-9.3	14.93
83.1	27.4	44.2388
83.2	-19.8	15.05
83.2	-16.2	15.34
83.2	-5.9	15.04
83.2	-2.5	15.2324
83.2	62.0	37.9846
83.3	-23.5	14.52
83.3	0.8	17.3996
83.3	38.8	45.4294
83.4	23.7	43.8524
83.4	51.6	45.6151
83.4	72.1	43.4423
83.5	-68.6	31.3547
83.5	-27.3	13.8959
83.5	4.1	15.4214
83.6	7.2	14.2552
83.6	20.2	42.8559
83.6	40.8	39.96
83.7	-63.8	14.04
83.7	-37.1	13.6
83.7	-31.2	13.3649
83.7	10.2	17.4893
83.7	16.8	15.5777
83.8	-58.8	13.85
83.8	-42.8	12.82
83.8	13.5	20.31
83.9	-53.6	14.41
83.9	-48.3	13.89
83.9	29.4	53.5007
83.9	53.5	44.34
84.0	42.7	52.7321
84.0	63.8	38.6696
84.1	-10.9	14.81
84.2	-17.9	15.21
84.2	-14.4	14.6
84.2	-7.5	14.84
84.2	-4.2	15.2796
84.2	31.4	61.37
84.3	-21.5	14.69
84.3	-0.8	16.4281
84.3	25.7	44.0477
84.4	-25.3	14.46
84.4	2.5	16.9122
84.4	44.6	46.4487
84.4	55.3	45.54
84.5	-35.1	13.73
84.5	22.1	43.4095
84.5	33.4	63.1094
84.5	82.0	30.8753
84.6	-29.1	14.1018
84.6	5.6	16.9081
84.6	73.9	43.034
84.7	8.7	16.7062
84.7	15.2	19.02
84.7	18.6	32.1234
84.8	-46.4	13.58
84.8	11.9	18.42
84.8	46.5	43.618
84.8	65.7	40.1786
84.9	-51.8	14.34
84.9	35.4	56.87
85.0	57.2	42.28
85.1	-57.0	15.5621
85.1	-33.0	13.54
85.1	27.7	43.3234
85.2	-62.0	14.03
85.2	-19.6	14.7
85.2	-16.1	15.05
85.2	-12.6	15.07
85.2	-9.2	15.18
85.2	-5.8	14.4463
85.2	37.4	46.4174
85.3	-66.9	29.9749
85.3	-2.5	15.5807
85.3	48.4	48.8814
85.4	-71.6	39.63
85.4	-38.9	13.6
85.4	-23.3	15.63
85.4	0.8	13.7541
85.4	24.0	49.2
85.5	-76.3	38.9255
85.5	-27.1	14.37
85.5	4.0	14.99
85.6	-85.5	41.39
85.6	-80.9	42.74
85.6	-44.5	13.27
85.6	20.5	37.4933
85.6	39.3	40.8992
85.7	7.1	16.4488
85.7	17.0	17.9686
85.7	59.1	45.38
85.8	-31.0	14.12
85.8	10.4	18.5
85.8	13.7	19.15
85.8	67.5	41.4072
85.9	-49.9	14.12
85.9	29.8	54.24
85.9	50.3	48.966
86.1	-36.8	13.81
86.1	41.3	47.0424
86.1	75.7	36.56
86.2	-55.1	15.0333
86.2	-17.8	14.47
86.2	-14.3	12.39
86.2	-10.8	15.02
86.2	-7.5	14.3662
86.3	-21.4	13.9
86.3	-4.1	14.9061
86.3	26.0	40.41
86.3	31.8	63.01
86.4	-42.5	12.84
86.4	-0.8	16.6
86.4	52.2	47.5445
86.5	-60.2	16.02
86.5	-25.1	14.84
86.5	2.4	16.9521
86.5	22.4	35.9669
86.5	43.2	43.95
86.5	60.9	44.5676
86.7	-34.8	13.25
86.7	-28.9	13.79
86.7	5.6	15.96
86.7	8.8	11.6123
86.7	18.9	20.0
86.7	33.8	60.02
86.8	-48.0	13.77
86.8	12.1	16.492
86.8	15.4	19.82
86.9	-65.1	20.92
86.9	69.3	39.08
87.0	45.2	45.2609
87.1	-40.5	12.9726
87.1	28.1	65.618
87.1	35.8	62.4593
87.1	54.1	42.99
87.2	-53.3	14.46
87.2	-15.9	13.68
87.2	-12.5	14.85
87.2	-9.1	14.8976
87.2	-5.8	15.05
87.3	-32.8	15.0
87.3	-19.5	13.21
87.3	-2.5	15.53
87.4	-69.9	38.27
87.4	-23.1	14.04
87.4	24.3	37.3863
87.4	62.7	39.95
87.5	-46.1	14.59
87.5	0.8	15.52
87.5	37.8	49.28
87.6	-26.9	11.0064
87.6	4.0	16.05
87.6	20.7	32.0522
87.6	47.1	47.32
87.7	-58.4	15.5448
87.7	7.2	16.0989
87.7	17.2	19.1256
87.8	-38.5	13.69
87.8	10.5	18.43
87.8	13.8	21.06
87.8	56.0	46.74
87.9	-30.7	13.1455
88.0	30.1	63.91
88.0	39.8	42.2557
88.1	-74.6	40.0907
88.1	-51.4	14.23
88.1	77.5	35.77
88.1	83.8	18.59
88.2	-63.3	15.6993
88.2	-17.6	13.0
88.2	-14.1	12.85
88.2	-10.7	10.1726
88.2	-7.4	14.29
88.2	49.0	50.17
88.3	-44.1	13.35
88.3	-21.2	13.84
88.3	-4.1	14.24
88.3	26.3	47.6415
88.3	71.1	43.35
88.4	-36.5	13.81
88.4	-0.8	14.32
88.4	32.2	70.9321
88.4	64.5	39.7476
88.5	-24.9	14.67
88.5	22.7	37.0725
88.5	41.7	43.6767
88.6	2.4	14.9
88.6	57.8	43.14
88.7	-56.5	15.45
88.7	5.6	15.6484
88.7	19.1	23.4886
88.8	-28.7	13.96
88.8	8.9	12.2537
88.8	12.2	17.1992
88.8	15.6	20.7746
88.9	-49.5	13.99
88.9	-42.2	12.84
88.9	-34.5	13.99
88.9	34.2	68.65
88.9	50.9	50.77
89.0	-68.1	36.7945
89.1	43.7	50.1758
89.2	-79.2	40.9
89.2	-15.8	15.13
89.2	-12.4	8.91
89.2	-9.0	14.66
89.2	28.4	68.531
89.3	-19.3	14.91
89.3	-5.7	13.6
89.4	-61.5	15.04
89.4	-22.9	14.99
89.4	-2.4	13.4489
89.4	24.6	35.5363
89.4	36.2	60.7
89.5	-40.2	12.9975
89.5	-32.5	14.76
89.5	0.8	10.4774
89.5	59.7	47.0
89.6	-54.7	14.38
89.6	-47.6	13.66
89.6	-26.6	15.53
89.6	21.0	31.05
89.6	52.8	50.64
89.6	66.4	45.152
89.7	4.1	14.1661
89.7	7.3	15.38
89.7	17.4	21.32
89.7	45.6	45.38
89.8	10.6	11.5646
89.8	14.0	18.1684
89.9	-30.5	12.19
89.9	38.2	42.1366
89.9	72.8	41.7775
90.1	-72.8	39.39
90.1	-38.2	13.66
90.1	30.5	62.22
90.2	-14.0	14.06
90.2	-10.6	11.548
90.3	-45.6	13.35
90.3	-17.4	15.19
90.3	-7.3	14.9246
90.3	-4.1	15.7
90.4	-66.4	29.5095
90.4	-52.8	14.08
90.4	-21.0	14.64
90.4	26.6	38.0204
90.4	47.6	46.27
90.4	54.7	48.4732
90.5	-59.7	15.48
90.5	-0.8	14.9
90.5	32.5	64.57
90.5	40.2	47.7665
90.6	-36.2	13.8637
90.6	-24.6	15.87
90.6	2.4	13.65
90.6	22.9	38.6959
90.6	61.5	45.2346
90.7	5.7	13.05
90.7	19.3	26.0
90.8	-28.4	15.26
90.8	9.0	14.3
90.8	12.4	15.06
90.8	15.8	18.63
90.8	79.2	36.3
90.9	-43.7	12.97
91.0	68.1	42.1285
91.1	-50.9	13.91
91.1	-34.2	14.1248
91.1	34.5	59.47
91.1	42.2	43.2
91.1	49.5	50.1892
91.2	-15.6	15.37
91.2	-12.2	14.6339
91.2	-8.9	14.93
91.2	28.7	62.4031
91.3	-19.1	15.27
91.3	-5.6	11.453
91.3	56.5	47.9002
91.4	-57.8	15.44
91.4	-2.4	15.59
91.5	-41.7	12.6871
91.5	-22.7	14.83
91.5	24.9	38.0426
91.6	-64.5	10.109
91.6	-32.2	14.28
91.6	0.8	15.48
91.6	36.5	51.33
91.7	-71.1	39.6048
91.7	-26.3	15.8
91.7	4.1	14.67
91.7	21.2	37.89
91.7	44.1	44.8621
91.8	-49.0	13.72
91.8	7.4	14.59
91.8	10.7	9.04
91.8	14.1	10.6105
91.8	17.6	17.27
91.8	63.3	43.2281
91.9	-83.8	42.1102
91.9	-77.5	42.0
91.9	51.4	50.01
91.9	74.6	41.9701
92.0	-39.8	13.2822
92.0	-30.1	15.0
92.1	30.7	62.64
92.2	-56.0	14.227
92.2	-13.8	13.89
92.2	-10.5	13.0992
92.2	38.5	44.8841
92.3	-17.2	15.51
92.3	-7.2	15.03
92.3	58.4	48.51
92.4	-47.1	13.3902
92.4	-20.7	15.1
92.4	-4.0	15.79
92.4	26.9	43.6548
92.5	-37.8	13.85
92.5	-0.8	13.1954
92.5	46.1	53.21
92.6	-62.7	15.85
92.6	-24.3	15.04
92.6	23.1	44.7784
92.6	69.9	42.9926
92.7	2.5	14.6644
92.7	19.5	27.9988
92.7	32.8	62.79
92.8	5.8	13.1619
92.8	9.1	29.2719
92.8	12.5	30.65
92.8	15.9	18.62
92.8	53.3	52.57
92.9	-54.1	14.21
92.9	-35.8	14.0256
92.9	-28.1	15.01
92.9	40.5	47.0579
93.0	-45.2	13.18
93.1	-69.3	39.12
93.1	65.1	44.4953
93.2	-15.4	15.56
93.2	-12.1	13.0749
93.2	48.0	45.1465
93.3	-33.8	14.3
93.3	-18.9	15.02
93.3	-8.8	12.322
93.3	-5.6	15.98
93.3	28.9	49.6476
93.3	34.8	61.23
93.5	-60.9	15.31
93.5	-43.2	12.9
93.5	-22.4	15.22
93.5	-2.4	15.67
93.5	25.1	46.7984
93.5	60.2	44.2635
93.6	-52.2	13.8
93.6	0.8	16.44
93.6	42.5	45.6193
93.7	-31.8	13.64
93.7	-26.0	15.77
93.7	4.1	13.15
93.7	21.4	41.95
93.8	7.5	27.0
93.8	10.8	19.9987
93.8	14.3	31.3315
93.8	17.8	31.11
93.8	55.1	50.34
93.9	-75.7	41.02
93.9	-41.3	13.21
93.9	36.8	56.31
94.1	-50.3	13.61
94.1	-29.8	13.61
94.1	49.9	42.9902
94.2	-67.5	31.1725
94.2	-13.7	13.6737
94.2	-10.4	14.4594
94.2	31.0	59.31
94.3	-59.1	15.43
94.3	-17.0	15.0
94.3	-7.1	15.05
94.4	-39.3	13.68
94.4	-20.5	15.2
94.4	44.5	43.909
94.4	80.9	44.16
94.4	85.5	13.2358
94.5	-4.0	14.0114
94.5	27.1	46.2572
94.5	76.3	33.38
94.6	-24.0	15.34
94.6	-0.8	15.55
94.6	23.3	42.68
94.6	38.9	52.9947
94.6	71.6	42.15
94.7	-48.4	13.4
94.7	2.5	15.5724
94.7	66.9	47.1641
94.8	-37.4	14.04
94.8	5.8	24.3935
94.8	9.2	19.7246
94.8	12.6	25.0
94.8	16.1	38.8387
94.8	19.6	40.67
94.8	62.0	44.6277
94.9	-27.7	14.56
94.9	33.0	60.99
94.9	57.0	47.28
95.0	-57.2	15.25
95.1	-35.4	14.1687
95.1	51.8	50.7712
95.2	-65.7	29.6758
95.2	-46.5	12.99
95.2	-11.9	9.08
95.2	46.4	48.9127
95.3	-18.6	15.5466
95.3	-15.2	15.23
95.3	-8.7	15.09
95.4	-73.9	39.27
95.4	-5.6	14.717
95.4	29.1	54.15
95.4	40.8	51.14
95.5	-82.0	42.11
95.5	-33.4	14.12
95.5	-22.1	15.03
95.5	35.1	62.36
95.6	-55.3	14.26
95.6	-44.6	13.05
95.6	-2.5	15.5
95.6	25.3	49.0
95.7	-25.7	15.23
95.7	0.8	15.38
95.7	21.5	37.2247
95.8	-31.4	11.4327
95.8	4.2	32.9846
95.8	7.5	22.2145
95.8	14.4	30.4271
95.8	17.9	40.9985
95.9	10.9	19.1518
96.0	-63.8	20.7152
96.0	-42.7	13.42
96.1	-53.5	13.767
96.1	-29.4	14.19
96.1	48.3	47.6927
96.1	53.6	48.7925
96.2	-13.5	10.9665
96.2	42.8	42.2317
96.2	58.8	42.95
96.3	-16.8	15.42
96.3	-10.2	15.1
96.3	31.2	62.35
96.3	37.1	45.6041
96.3	63.8	40.0633
96.4	-40.8	13.74
96.4	-20.2	13.955
96.4	-7.2	14.96
96.5	-4.1	14.99
96.5	27.3	45.0192
96.5	68.6	46.9
96.6	-72.1	39.47
96.6	-51.6	13.64
96.6	-23.7	14.0581
96.7	-38.8	14.07
96.7	-0.8	15.61
96.7	23.5	35.5501
96.8	-62.0	15.6088
96.8	2.5	32.4888
96.8	5.9	28.9736
96.8	16.2	27.0003
96.8	19.8	33.9924
96.9	-27.4	15.53
96.9	9.3	26.649
96.9	12.7	28.8269
96.9	73.4	40.8155
97.0	33.2	62.8814
97.0	39.1	50.55
97.1	-49.7	13.37
97.1	-36.9	14.5
97.1	44.8	42.5651
97.2	-11.7	14.72
97.2	50.2	46.6233
97.3	-18.3	15.55
97.3	-15.0	14.5528
97.3	55.5	43.6908
97.4	-60.2	15.331
97.4	-34.9	14.47
97.4	-8.7	11.5195
97.5	-47.8	12.92
97.5	-21.8	13.8392
97.5	-5.7	14.94
97.5	29.3	56.88
97.6	-70.3	39.0299
97.6	-33.0	13.7757
97.6	-2.5	15.75
97.6	25.4	35.7615
97.6	60.6	37.85
97.7	0.8	29.48
97.8	-80.2	41.13
97.8	-25.3	14.6107
97.8	4.2	38.97
97.8	18.0	32.1904
97.8	21.7	28.6193
97.8	35.3	57.099
97.8	78.0	38.56
97.9	-45.9	13.1088
97.9	-31.0	13.24
97.9	7.6	27.126
97.9	11.0	30.0052
97.9	14.5	29.3291
97.9	41.1	44.5246
98.0	-58.3	15.1996
98.0	46.7	44.7607
98.0	65.5	44.72
98.1	-29.0	13.37
98.2	-44.0	13.39
98.2	-13.2	15.33
98.3	-16.5	15.5589
98.3	52.1	46.3872
98.4	-56.5	14.19
98.4	-19.9	12.3164
98.4	-10.3	15.22
98.4	31.4	59.22
98.5	-68.5	37.83
98.5	-42.1	13.65
98.5	-7.2	15.13
98.6	-23.4	14.0195
98.6	-4.1	15.7
98.6	27.4	57.4934
98.6	37.3	52.09
98.6	57.3	40.1289
98.6	70.3	41.4096
98.7	-0.8	34.4071
98.7	23.6	30.817
98.8	-40.2	14.05
98.8	2.5	40.64
98.8	5.9	25.2651
98.8	19.9	31.544
98.8	43.1	41.5693
98.9	-54.6	13.87
98.9	-27.0	15.65
98.9	9.3	29.1982
98.9	12.8	31.022
98.9	16.3	28.5278
99.1	-38.3	14.34
99.1	48.6	54.0625
99.1	62.3	38.4896
99.2	-66.7	29.6414
99.2	33.4	58.35
99.3	-52.8	13.69
99.3	-36.3	14.4611
99.3	-18.0	15.8073
99.3	-14.7	15.2033
99.4	-78.4	44.13
99.4	-11.8	10.4929
99.5	-34.4	14.47
99.5	-21.4	13.1642
99.5	-8.8	15.37
99.5	39.3	54.09
99.5	53.9	43.138
99.6	-50.9	13.55
99.6	-5.7	15.14
99.6	29.4	55.11
99.7	-2.5	24.7294
99.7	25.6	42.995
99.8	-64.8	27.3571
99.8	-32.5	12.87
99.8	-25.0	15.65
99.8	0.8	37.4747
99.8	4.2	30.174
99.8	21.8	35.7034
99.8	45.0	43.9309
99.8	75.0	40.3507
99.8	82.6	16.9609
99.9	-49.0	13.38
99.9	7.6	25.9199
99.9	11.1	24.0814
99.9	14.6	30.9967
99.9	18.1	36.2057
99.9	67.2	47.396
100.0	-30.5	13.74
100.0	35.5	48.9876
100.1	-28.6	13.9806
100.1	59.1	39.0469
100.2	-47.1	12.79
100.2	50.5	41.6397
100.3	-63.0	19.0
100.3	-16.2	15.93
100.4	-19.6	12.9615
100.4	-13.3	12.4502
100.4	41.3	40.54
100.5	-76.6	40.26
100.5	-45.2	13.43
100.5	-10.3	12.3363
100.6	-23.0	15.72
100.6	-7.3	15.44
100.6	31.5	63.88
100.7	-61.2	15.33
100.7	-43.4	13.71
100.7	-4.1	15.582
100.7	27.5	57.8835
100.8	-0.8	36.1102
100.8	2.5	26.2547
100.8	23.7	37.8547
100.8	55.7	38.7005
100.9	-26.5	15.21
100.9	5.9	29.7414
100.9	9.4	29.0037
100.9	12.8	29.1536
100.9	16.4	33.9436
100.9	20.0	35.484
100.9	37.5	46.7853
100.9	46.9	47.0651
100.9	64.1	39.9861
101.0	-41.5	13.98
101.1	-59.3	15.46
101.2	-39.6	14.38
101.2	72.0	40.3503
101.3	-17.7	14.6472
101.4	-74.8	39.47
101.4	-37.7	14.67
101.4	-14.8	15.37
101.4	33.6	59.0062
101.4	43.2	40.3908
101.5	-57.5	14.31
101.5	-35.8	14.2168
101.5	-21.1	14.999
101.5	-11.9	14.69
101.5	52.3	39.6353
101.6	-8.8	15.48
101.7	-33.9	14.74
101.7	-24.5	15.52
101.7	-5.7	13.35
101.7	29.6	59.01
101.7	60.8	39.1613
101.8	-55.7	14.01
101.8	-2.5	32.8574
101.8	0.8	27.0003
101.8	25.7	47.3378
101.9	-32.0	14.06
101.9	4.2	28.4208
101.9	7.7	29.0272
101.9	11.1	29.9839
101.9	14.6	29.8075
101.9	18.2	34.6352
101.9	21.9	35.57
101.9	39.5	42.02
102.0	-53.8	13.75
102.0	-30.0	14.21
102.0	48.8	41.0
102.1	-73.0	38.81
102.1	-28.1	15.37
102.1	79.6	39.89
102.2	68.9	41.4721
102.3	-52.0	13.59
102.3	35.6	51.62
102.3	57.5	42.4068
102.4	-19.2	13.2414
102.5	-50.1	13.48
102.5	-16.3	16.06
102.5	45.2	42.46
102.6	-71.2	38.99
102.6	-22.6	15.29
102.6	-13.4	14.83
102.7	-48.2	13.07
102.7	-10.4	12.0264
102.7	-7.3	15.63
102.7	31.6	60.88
102.8	-4.1	30.5837
102.8	-0.8	27.4938
102.8	23.8	36.8469
102.8	27.6	49.8618
102.9	-46.4	13.24
102.9	-26.1	14.98
102.9	2.5	25.5027
102.9	6.0	30.0111
102.9	9.4	31.1853
102.9	12.9	31.108
102.9	16.4	34.8936
102.9	20.1	36.2866
102.9	41.4	39.2
102.9	54.1	38.9145
103.0	65.8	45.3579
103.1	-69.4	39.47
103.1	-44.5	13.74
103.2	-42.6	14.01
103.3	37.6	49.0042
103.3	50.6	42.2372
103.4	-67.5	39.14
103.4	-40.8	14.28
103.4	76.6	42.0782
103.5	-38.9	12.1497
103.5	-20.7	16.4
103.5	-17.8	15.9
103.5	62.6	45.7083
103.6	-37.0	14.71
103.6	-14.9	16.42
103.6	33.7	54.0
103.7	-35.2	15.12
103.7	-24.1	15.43
103.7	-11.9	14.64
103.7	47.0	40.1
103.8	-65.7	27.6308
103.8	-33.3	16.25
103.8	-8.9	16.7
103.8	-5.7	26.0
103.8	29.6	43.3543
103.9	-31.4	16.2
103.9	-2.5	38.9635
103.9	0.9	31.6934
103.9	4.3	28.2072
103.9	7.7	32.1345
103.9	11.1	31.0165
103.9	14.7	34.9994
103.9	18.3	33.2193
103.9	21.9	32.5113
103.9	25.7	44.5755
104.0	-63.9	11.7256
104.0	-29.5	14.97
104.0	43.4	38.8332
104.0	59.3	44.5065
104.1	-27.6	14.64
104.3	-62.1	16.07
104.3	39.6	41.0602
104.3	73.6	42.0922
104.4	55.9	39.0705
104.5	-60.2	15.37
104.6	-22.2	13.04
104.6	-19.3	16.56
104.6	35.7	49.2851
104.7	-58.4	14.41
104.7	-16.4	15.96
104.7	-13.4	16.73
104.7	52.4	38.9393
104.8	-56.6	14.25
104.8	-10.4	14.52
104.8	-7.3	9.876
104.8	31.7	41.052
104.9	-25.6	14.9671
104.9	-4.1	35.5197
104.9	-0.8	27.6172
104.9	2.6	29.2535
104.9	6.0	30.1079
104.9	20.1	35.0119
104.9	23.8	33.1588
104.9	27.7	44.7005
104.9	70.5	39.9219
105.0	-54.7	13.91
105.0	9.4	31.7546
105.0	12.9	35.7659
105.0	16.5	31.4579
105.0	48.9	39.21
105.1	-52.9	13.68
105.2	-51.1	13.55
105.3	-49.2	12.9893
105.3	45.3	38.95
105.3	67.4	44.3565
105.4	-47.4	12.8359
105.5	-45.6	13.73
105.5	41.5	40.2974
105.6	-43.7	13.97
105.6	-41.9	14.17
105.6	37.7	43.8403
105.6	64.2	45.0168
105.7	-40.0	13.0688
105.7	-23.6	15.061
105.7	-20.7	16.34
105.8	-38.2	14.71
105.8	-36.3	14.1249
105.8	-17.8	16.78
105.8	-14.9	15.85
105.8	-11.9	14.91
105.8	33.7	44.5528
105.9	-34.5	16.21
105.9	-32.7	16.1224
105.9	-8.9	15.7
105.9	-5.8	35.9223
105.9	-2.5	26.7226
105.9	0.9	26.0548
105.9	22.0	31.07
105.9	25.8	39.8803
105.9	29.7	42.0187
105.9	61.0	40.55
106.0	-30.8	14.4179
106.0	-29.0	15.02
106.0	4.3	30.0238
106.0	7.7	30.2967
106.0	11.2	32.2424
106.0	14.7	37.3981
106.0	18.3	31.682
106.1	-27.1	15.204
106.1	57.6	36.9418
106.3	54.2	38.4925
106.4	50.7	40.6921
106.6	47.1	39.34
106.7	43.4	39.9822
106.8	-25.1	15.03
106.8	39.6	46.3793
106.9	-22.2	14.1432
106.9	-19.3	15.63
106.9	-16.4	16.96
106.9	-13.4	16.24
106.9	-10.4	15.5308
106.9	-7.3	28.8951
106.9	31.7	42.5296
106.9	35.7	48.477
107.0	-4.2	24.4721
107.0	-0.8	25.8388
107.0	2.6	28.4072
107.0	6.0	29.3769
107.0	9.4	29.4501
107.0	12.9	34.263
107.0	16.5	37.3939
107.0	20.1	31.0033
107.0	23.9	27.304
107.0	27.7	46.4209
108.0	-88.2	41.67
108.0	-86.4	41.65
108.0	-84.6	40.62
108.0	-82.8	41.61
108.0	-80.9	41.4461
108.0	-79.1	41.1728
108.0	-77.3	39.43
108.0	-75.5	39.62
108.0	-73.7	38.96
108.0	-71.9	39.2295
108.0	-70.1	38.039
108.0	-68.3	37.94
108.0	-66.4	34.367
108.0	-64.6	9.6441
108.0	-62.8	15.89
108.0	-61.0	9.41
108.0	-59.2	14.46
108.0	-57.4	14.45
108.0	-55.6	14.052
108.0	-53.8	13.7
108.0	-51.9	13.48
108.0	-50.1	13.28
108.0	-48.3	13.04
108.0	-46.5	13.59
108.0	-44.7	14.01
108.0	-42.9	14.15
108.0	-41.1	14.33
108.0	-39.3	14.4412
108.0	-37.4	14.2734
108.0	-35.6	15.4
108.0	-33.8	15.11
108.0	-32.0	15.1
108.0	-30.2	15.18
108.0	-28.4	15.09
108.0	-26.6	15.35
108.0	-23.6	14.76
108.0	-20.7	16.24
108.0	-17.8	16.61
108.0	-14.9	12.958
108.0	-11.9	11.8132
108.0	-8.9	18.62
108.0	-5.8	32.8376
108.0	-2.5	26.8316
108.0	0.9	30.8348
108.0	4.3	29.9652
108.0	7.7	28.0041
108.0	11.2	32.8546
108.0	14.7	36.421
108.0	18.3	32.935
108.0	22.0	29.6648
108.0	25.8	35.8129
108.0	29.7	44.59
108.0	33.7	38.991
108.0	37.7	38.8609
108.0	41.5	40.7569
108.0	45.3	37.42
108.0	48.9	39.57
108.0	52.5	36.5646
108.0	55.9	39.0576
108.0	59.3	37.2219
108.0	62.6	38.9981
108.0	65.8	42.97
108.0	72.1	39.089
108.0	75.2	40.5478
108.0	78.2	34.24
108.0	81.2	11.3133
108.0	84.1	14.27
108.0	87.1	16.27
109.0	-4.2	27.0171
109.0	-0.8	30.6168
109.0	2.6	31.2897
109.0	6.0	28.7151
109.0	9.4	22.9639
109.0	12.9	30.4927
109.0	16.5	32.8215
109.0	20.1	29.8865
109.0	23.9	27.1399
109.0	27.7	40.8729
109.1	-22.2	15.58
109.1	-19.3	12.6402
109.1	-16.4	15.5159
109.1	-13.4	14.2011
109.1	-10.4	15.3817
109.1	-7.3	36.75
109.1	31.7	44.44
109.1	35.7	36.9758
109.2	-25.1	14.94
109.2	39.6	44.74
109.3	43.4	38.68
109.4	47.1	37.9316
109.6	50.7	40.56
109.7	54.2	36.3303
109.9	-27.1	16.73
109.9	57.6	37.8133
110.0	-30.8	16.43
110.0	-29.0	16.79
110.0	4.3	29.4002
110.0	7.7	23.8308
110.0	11.2	23.3228
110.0	14.7	27.736
110.0	18.3	30.2758
110.1	-34.5	13.59
110.1	-32.7	15.55
110.1	-8.9	27.6375
110.1	-5.8	30.5556
110.1	-2.5	30.0463
110.1	0.9	33.1527
110.1	22.0	30.6311
110.1	25.8	30.5478
110.1	29.7	40.88
110.1	61.0	36.9
110.2	-38.2	14.3982
110.2	-36.3	16.05
110.2	-17.8	15.6942
110.2	-14.9	14.5065
110.2	-11.9	14.49
110.2	33.7	34.7154
110.3	-40.0	14.51
110.3	-23.6	15.8
110.3	-20.7	15.29
110.4	-43.7	14.2401
110.4	-41.9	14.45
110.4	37.7	34.15
110.4	64.2	40.96
110.5	-45.6	13.96
110.5	41.5	41.3846
110.6	-47.4	13.58
110.7	-49.2	13.11
110.7	45.3	39.2523
110.7	67.4	43.68
110.8	-51.1	13.45
110.9	-52.9	12.2895
111.0	-54.7	14.01
111.0	9.4	20.6594
111.0	12.9	11.0534
111.0	16.5	25.0138
111.0	48.9	37.32
111.1	-25.6	20.0041
111.1	-4.1	29.0022
111.1	-0.8	32.947
111.1	2.6	30.8816
111.1	6.0	25.0
111.1	20.1	29.6546
111.1	23.8	26.4398
111.1	27.7	35.5344
111.1	70.5	37.2543
111.2	-56.6	14.56
111.2	-10.4	15.89
111.2	-7.3	37.8982
111.2	31.7	41.72
111.3	-58.4	14.6
111.3	-16.4	19.679
111.3	-13.4	15.33
111.3	52.4	37.5222
111.4	-22.2	16.99
111.4	-19.3	22.064
111.4	35.7	33.7575
111.5	-60.2	15.27
111.6	55.9	39.7509
111.7	-62.1	15.86
111.7	39.6	42.1098
111.7	73.6	41.0012
111.9	-27.6	12.3732
112.0	-63.9	17.3584
112.0	-29.5	15.36
112.0	43.4	40.15
112.0	59.3	38.5558
112.1	-31.4	16.103
112.1	-2.5	33.0794
112.1	0.9	34.0742
112.1	4.3	29.7837
112.1	7.7	24.8253
112.1	14.7	13.1007
112.1	18.3	21.4938
112.1	21.9	29.893
112.1	25.7	29.08
112.2	-65.7	26.6139
112.2	-33.3	13.2311
112.2	-8.9	31.0
112.2	-5.7	23.9333
112.2	29.6	36.012
112.3	-35.2	16.0
112.3	-24.1	27.0402
112.3	-11.9	15.05
112.3	47.0	36.9311
112.4	-37.0	14.98
112.4	-14.9	16.6682
112.4	33.7	29.7642
112.5	-38.9	13.9748
112.5	-20.7	22.18
112.5	-17.8	17.7246
112.5	62.6	38.77
112.6	-67.5	36.5655
112.6	-40.8	14.47
112.6	76.6	32.7365
112.7	37.6	37.69
112.7	50.6	38.73
112.8	-42.6	14.39
112.9	-69.4	38.96
112.9	-44.5	14.24
113.0	65.8	46.21
113.1	-46.4	14.05
113.1	-26.1	25.4116
113.1	2.5	35.1095
113.1	6.0	27.7703
113.1	9.4	23.0
113.1	12.9	15.21
113.1	16.4	14.32
113.1	20.1	26.5403
113.1	41.4	40.5621
113.1	54.1	38.3435
113.2	-4.1	29.8543
113.2	-0.8	38.18
113.2	23.8	28.3065
113.2	27.6	29.9888
113.3	-48.2	13.55
113.3	-10.4	10.5005
113.3	-7.3	30.4191
113.3	31.6	33.2506
113.4	-71.2	38.34
113.4	-22.6	27.6374
113.4	-13.4	18.52
113.5	-50.1	13.18
113.5	-16.3	21.68
113.5	45.2	38.9414
113.6	-19.2	26.55
113.7	-52.0	13.6
113.7	35.6	32.2207
113.7	57.5	41.0004
113.8	68.9	42.09
113.9	-73.0	39.15
113.9	-28.1	26.0671
113.9	79.6	18.3672
114.0	-53.8	12.0111
114.0	-30.0	10.2967
114.0	48.8	34.3066
114.1	-32.0	15.8905
114.1	4.2	37.72
114.1	7.7	24.247
114.1	11.1	13.67
114.1	14.6	15.18
114.1	18.2	15.5077
114.1	21.9	27.0064
114.1	39.5	36.42
114.2	-55.7	14.48
114.2	-2.5	35.1327
114.2	0.8	39.01
114.2	25.7	29.8911
114.3	-33.9	27.4945
114.3	-24.5	29.0606
114.3	-5.7	25.4421
114.3	29.6	27.0016
114.3	60.8	37.6441
114.4	-8.8	31.8265
114.5	-57.5	14.62
114.5	-35.8	16.4492
114.5	-21.1	34.66
114.5	-11.9	19.31
114.5	52.3	37.2913
114.6	-74.8	38.94
114.6	-37.7	14.4772
114.6	-14.8	18.66
114.6	33.6	34.6
114.6	43.2	37.12
114.7	-17.7	22.1296
114.8	-39.6	14.4822
114.8	72.0	38.8893
114.9	-59.3	15.59
115.0	-41.5	14.52
115.1	-26.5	35.9812
115.1	5.9	36.83
115.1	9.4	24.0593
115.1	12.8	15.21
115.1	16.4	14.55
115.1	20.0	22.7303
115.1	37.5	32.2216
115.1	46.9	35.051
115.1	64.1	42.7675
115.2	-0.8	36.1163
115.2	2.5	39.6919
115.2	23.7	25.43
115.2	55.7	42.81
115.3	-61.2	16.32
115.3	-43.4	14.51
115.3	-4.1	30.3556
115.3	27.5	28.4223
115.4	-23.0	37.244
115.4	-7.3	27.6749
115.4	31.5	31.86
115.5	-76.6	39.75
115.5	-45.2	14.24
115.5	-10.3	21.07
115.6	-19.6	27.1152
115.6	-13.3	13.51
115.6	41.3	32.74
115.7	-63.0	13.2925
115.7	-16.2	19.4788
115.8	-47.1	13.6933
115.8	50.5	31.035
115.9	-28.6	29.4044
115.9	59.1	39.7648
116.0	-30.5	39.1811
116.0	35.5	32.7865
116.1	-49.0	13.55
116.1	7.6	26.0
116.1	11.1	24.1615
116.1	14.6	15.1
116.1	18.1	16.06
116.1	67.2	41.06
116.2	-64.8	21.92
116.2	-32.5	42.703
116.2	-25.0	41.9025
116.2	0.8	35.2449
116.2	4.2	39.19
116.2	21.8	23.9106
116.2	45.0	36.8109
116.2	75.0	37.1233
116.2	82.6	14.3045
116.3	-2.5	35.1758
116.3	25.6	28.211
116.4	-50.9	13.52
116.4	-5.7	31.1518
116.4	29.4	28.0
116.5	-34.4	25.27
116.5	-21.4	37.3408
116.5	-8.8	34.0
116.5	39.3	34.86
116.5	53.9	38.8002
116.6	-78.4	39.77
116.6	-11.8	19.79
116.7	-52.8	13.92
116.7	-36.3	15.9148
116.7	-18.0	26.6594
116.7	-14.7	17.42
116.8	-66.7	27.8278
116.8	33.4	31.7063
116.9	-38.3	11.217
116.9	48.6	35.5923
116.9	62.3	39.0043
117.1	-54.6	14.41
117.1	-27.0	38.25
117.1	9.3	23.9274
117.1	12.8	15.6
117.1	16.3	14.8
117.2	-40.2	12.5174
117.2	2.5	37.55
117.2	5.9	33.4432
117.2	19.9	9.435
117.2	43.1	32.77
117.3	-0.8	37.4649
117.3	23.6	26.0178
117.4	-23.4	32.69
117.4	-4.1	31.54
117.4	27.4	29.35
117.4	37.3	29.2409
117.4	57.3	41.91
117.4	70.3	39.179
117.5	-68.5	38.6
117.5	-42.1	14.62
117.5	-7.2	32.0996
117.6	-56.5	14.58
117.6	-19.9	32.3257
117.6	-10.3	20.27
117.6	31.4	29.4087
117.7	-16.5	18.9202
117.7	52.1	33.3224
117.8	-44.0	14.34
117.8	-13.2	16.82
117.9	-29.0	33.3502
118.0	-58.3	15.5906
