lon	lat	LAB_depth
-75.10000000000002	-6.0	156.973
-75.10000000000002	-2.6	143.8622
-75.10000000000002	0.8	108.6163
-75.10000000000002	4.1	192.4334
-75.10000000000002	25.6	126.5213
-75.0	-48.9	73.2535
-75.0	-16.5	94.5257
-75.0	-12.9	193.8741
-75.0	-9.4	209.6446
-75.0	54.7	260.2667
-74.89999999999998	52.9	234.7654
-74.80000000000001	51.1	203.0129
-74.69999999999999	-67.4	81.4074
-74.69999999999999	-45.3	75.0205
-74.69999999999999	49.2	201.7628
-74.60000000000002	47.4	160.8201
-74.5	-41.5	68.8296
-74.5	45.6	135.6099
-74.39999999999998	-64.2	71.287
-74.39999999999998	-37.7	80.6932
-74.39999999999998	41.9	114.9605
-74.39999999999998	43.7	124.0373
-74.30000000000001	20.7	89.8797
-74.30000000000001	23.6	113.5586
-74.30000000000001	40.0	120.3709
-74.19999999999999	-33.7	81.2239
-74.19999999999999	11.9	83.0038
-74.19999999999999	14.9	97.5668
-74.19999999999999	17.8	59.9447
-74.19999999999999	36.3	128.595
-74.19999999999999	38.2	134.9465
-74.10000000000002	-61.0	78.851
-74.10000000000002	-29.7	80.9744
-74.10000000000002	-25.8	76.4978
-74.10000000000002	-22.0	79.456
-74.10000000000002	-0.9	133.447
-74.10000000000002	2.5	103.0824
-74.10000000000002	5.8	187.0478
-74.10000000000002	8.9	134.6943
-74.10000000000002	32.7	144.3186
-74.10000000000002	34.5	134.0695
-74.0	-18.3	80.9662
-74.0	-14.7	170.7592
-74.0	-11.2	193.919
-74.0	-7.7	161.2676
-74.0	-4.3	163.6294
-74.0	29.0	138.1944
-74.0	30.8	139.0181
-73.89999999999998	-57.6	79.6948
-73.89999999999998	27.1	140.1127
-73.69999999999999	-54.2	79.0437
-73.60000000000002	-50.7	75.9034
-73.39999999999998	-47.1	69.8929
-73.30000000000001	-43.4	77.1533
-73.19999999999999	-39.6	88.0053
-73.19999999999999	25.1	92.6088
-73.10000000000002	-35.7	103.6923
-73.10000000000002	-31.7	113.0321
-73.10000000000002	7.3	159.0397
-73.10000000000002	10.4	161.5675
-73.10000000000002	13.4	103.0249
-73.10000000000002	16.4	87.2108
-73.10000000000002	19.3	74.2555
-73.10000000000002	22.2	113.082
-73.0	-27.7	84.2541
-73.0	-23.9	80.0298
-73.0	-20.1	69.9496
-73.0	-16.5	90.9389
-73.0	-12.9	189.6985
-73.0	-9.4	188.2478
-73.0	-6.0	169.7663
-73.0	-2.6	158.3793
-73.0	0.8	128.8869
-73.0	4.2	148.5549
-72.0	-87.1	113.3752
-72.0	-84.1	98.8247
-72.0	-81.2	102.9958
-72.0	-78.2	87.004
-72.0	-75.2	75.3948
-72.0	-72.1	77.033
-72.0	-69.0	76.7474
-72.0	-65.8	68.8716
-72.0	-62.6	73.5897
-72.0	-59.3	76.5137
-72.0	-55.9	124.2247
-72.0	-52.5	75.3467
-72.0	-48.9	73.2143
-72.0	-45.3	77.1353
-72.0	-41.5	82.1003
-72.0	-37.7	114.9583
-72.0	-33.7	104.4703
-72.0	-29.7	111.9186
-72.0	-25.8	92.8782
-72.0	-22.0	78.2809
-72.0	-18.3	99.3734
-72.0	-14.7	225.0875
-72.0	-11.2	193.0069
-72.0	-7.7	178.8844
-72.0	-4.3	158.8995
-72.0	-0.9	139.8326
-72.0	2.5	137.119
-72.0	5.8	169.3737
-72.0	8.9	182.7895
-72.0	11.9	128.985
-72.0	14.9	92.2674
-72.0	17.8	62.9524
-72.0	20.7	108.1155
-72.0	23.6	93.5923
-72.0	26.6	93.0299
-72.0	28.4	84.7573
-72.0	30.2	86.3872
-72.0	32.0	138.1857
-72.0	33.8	137.5657
-72.0	35.6	126.9348
-72.0	37.4	129.6041
-72.0	39.3	124.1355
-72.0	41.1	105.4028
-72.0	42.9	85.3069
-72.0	44.7	109.2043
-72.0	46.5	139.6253
-72.0	48.3	173.7121
-72.0	50.1	204.1523
-72.0	51.9	202.5606
-72.0	53.8	245.7473
-72.0	55.6	269.7385
-72.0	57.4	272.3215
-72.0	59.2	272.6745
-72.0	61.0	265.7103
-72.0	62.8	238.8343
-72.0	64.6	240.7784
-72.0	66.4	235.4637
-72.0	68.3	222.1747
-72.0	70.1	164.2741
-72.0	71.9	113.6754
-72.0	73.7	94.7839
-72.0	75.5	119.2944
-72.0	77.3	156.8471
-72.0	79.1	180.2497
-72.0	80.9	175.0284
-72.0	82.8	118.4335
-72.0	84.6	97.4756
-72.0	86.4	92.1354
-72.0	88.2	81.5278
-71.0	-27.7	126.5966
-71.0	-23.9	128.7296
-71.0	-20.1	119.3935
-71.0	-16.5	199.0203
-71.0	-12.9	221.6822
-71.0	-9.4	191.2505
-71.0	-6.0	180.9805
-71.0	-2.6	154.8521
-71.0	0.8	143.1615
-71.0	4.2	150.8053
-70.89999999999998	-35.7	144.1302
-70.89999999999998	-31.7	129.1175
-70.89999999999998	7.3	158.4955
-70.89999999999998	10.4	192.9255
-70.89999999999998	13.4	112.7774
-70.89999999999998	16.4	91.5117
-70.89999999999998	19.3	71.0018
-70.89999999999998	22.2	118.9412
-70.80000000000001	-39.6	80.5321
-70.80000000000001	25.1	100.5425
-70.69999999999999	-43.4	75.0101
-70.60000000000002	-47.1	75.5331
-70.39999999999998	-50.7	74.814
-70.30000000000001	-54.2	75.1903
-70.10000000000002	-57.6	72.0409
-70.10000000000002	27.1	86.2061
-70.0	-18.3	87.2888
-70.0	-14.7	229.6014
-70.0	-11.2	200.0028
-70.0	-7.7	181.6135
-70.0	-4.3	158.9325
-70.0	29.0	81.9903
-70.0	30.8	80.1405
-69.89999999999998	-61.0	73.1028
-69.89999999999998	-29.7	299.6183
-69.89999999999998	-25.8	139.3517
-69.89999999999998	-22.0	125.012
-69.89999999999998	-0.9	143.0815
-69.89999999999998	2.5	148.2513
-69.89999999999998	5.8	151.7641
-69.89999999999998	8.9	147.4401
-69.89999999999998	32.7	80.2113
-69.89999999999998	34.5	93.7987
-69.80000000000001	-33.7	248.2069
-69.80000000000001	11.9	136.1049
-69.80000000000001	14.9	100.7629
-69.80000000000001	17.8	69.0152
-69.80000000000001	36.3	133.6481
-69.80000000000001	38.2	135.1666
-69.69999999999999	20.7	97.1037
-69.69999999999999	23.6	90.1553
-69.69999999999999	40.0	127.655
-69.60000000000002	-64.2	70.1982
-69.60000000000002	-37.7	79.9345
-69.60000000000002	41.9	97.0878
-69.60000000000002	43.7	99.0255
-69.5	-41.5	77.7137
-69.5	45.6	131.4958
-69.39999999999998	47.4	170.7765
-69.30000000000001	-67.4	73.0369
-69.30000000000001	-45.3	75.0179
-69.30000000000001	49.2	189.1975
-69.19999999999999	51.1	226.7986
-69.10000000000002	52.9	201.7951
-69.0	-48.9	75.3769
-69.0	-16.5	213.6154
-69.0	-12.9	182.1733
-69.0	-9.4	176.0327
-69.0	54.7	260.1441
-68.89999999999998	-70.5	72.8479
-68.89999999999998	-27.7	182.2951
-68.89999999999998	-23.8	156.9996
-68.89999999999998	-20.1	300.0
-68.89999999999998	-6.0	183.2635
-68.89999999999998	-2.6	146.7044
-68.89999999999998	0.8	150.3323
-68.89999999999998	4.1	150.9095
-68.89999999999998	25.6	97.1186
-68.80000000000001	-31.7	220.068
-68.80000000000001	7.3	136.7773
-68.80000000000001	10.4	117.0101
-68.80000000000001	56.6	230.5647
-68.69999999999999	-52.4	76.0205
-68.69999999999999	13.4	115.9119
-68.69999999999999	16.4	100.999
-68.69999999999999	58.4	240.0095
-68.60000000000002	-35.7	101.5854
-68.60000000000002	19.3	80.2486
-68.60000000000002	22.2	83.3187
-68.5	60.2	216.9766
-68.39999999999998	-55.9	73.0535
-68.30000000000001	-73.6	67.0175
-68.30000000000001	-39.6	75.4001
-68.30000000000001	62.1	217.0217
-68.10000000000002	27.6	85.8885
-68.0	-59.3	74.6617
-68.0	-43.4	77.7282
-68.0	29.5	83.8244
-68.0	63.9	185.1697
-67.89999999999998	-25.7	268.0082
-67.89999999999998	-21.9	300.0
-67.89999999999998	-18.3	227.6741
-67.89999999999998	-14.7	164.5031
-67.89999999999998	-11.1	163.4253
-67.89999999999998	-7.7	167.9396
-67.89999999999998	-4.3	177.891
-67.89999999999998	-0.9	157.0433
-67.89999999999998	2.5	152.1797
-67.89999999999998	31.4	72.3021
-67.80000000000001	-29.6	188.0994
-67.80000000000001	5.7	141.6387
-67.80000000000001	8.9	131.645
-67.80000000000001	33.3	84.5153
-67.80000000000001	65.7	191.2785
-67.69999999999999	-47.0	76.0615
-67.69999999999999	11.9	93.1953
-67.69999999999999	24.1	83.0974
-67.69999999999999	35.2	85.4435
-67.60000000000002	-33.7	159.0019
-67.60000000000002	14.9	103.2921
-67.60000000000002	37.0	129.1263
-67.5	-62.6	71.6024
-67.5	17.8	69.5959
-67.5	20.7	78.9451
-67.5	38.9	132.7652
-67.39999999999998	-76.6	91.9727
-67.39999999999998	40.8	118.1331
-67.39999999999998	67.5	189.4737
-67.30000000000001	-50.6	86.2482
-67.30000000000001	-37.6	103.005
-67.19999999999999	42.6	97.3873
-67.10000000000002	44.5	106.1816
-67.10000000000002	69.4	153.2105
-67.0	-65.8	72.0896
-66.89999999999998	-54.1	87.0385
-66.89999999999998	-41.4	84.4593
-66.89999999999998	-20.1	300.0
-66.89999999999998	-16.4	203.8889
-66.89999999999998	-12.9	146.0015
-66.89999999999998	-9.4	140.8071
-66.89999999999998	-6.0	161.3693
-66.89999999999998	-2.5	181.2805
-66.89999999999998	26.1	85.6097
-66.89999999999998	46.4	143.5875
-66.80000000000001	-27.6	273.2368
-66.80000000000001	-23.8	300.0
-66.80000000000001	0.8	150.9678
-66.80000000000001	4.1	148.4233
-66.69999999999999	-31.6	192.953
-66.69999999999999	7.3	135.7623
-66.69999999999999	10.4	119.0264
-66.69999999999999	48.2	189.077
-66.60000000000002	13.4	118.0242
-66.60000000000002	22.6	76.0181
-66.60000000000002	71.2	82.6628
-66.5	-45.2	85.001
-66.5	16.3	91.7144
-66.5	50.1	199.0442
-66.39999999999998	19.2	112.4041
-66.30000000000001	-57.5	76.9957
-66.30000000000001	-35.6	102.2044
-66.30000000000001	52.0	209.0726
-66.19999999999999	-68.9	75.0973
-66.10000000000002	-79.6	100.7413
-66.10000000000002	28.1	82.3779
-66.10000000000002	73.0	69.7458
-66.0	-48.8	89.2749
-66.0	30.0	95.8588
-66.0	53.8	218.4435
-65.89999999999998	-39.5	90.2034
-65.89999999999998	-21.9	239.7571
-65.89999999999998	-18.2	199.1927
-65.89999999999998	-14.6	152.9731
-65.89999999999998	-11.1	139.8149
-65.89999999999998	-7.7	145.9325
-65.89999999999998	-4.2	185.2537
-65.89999999999998	32.0	99.7761
-65.80000000000001	-25.7	79.2717
-65.80000000000001	-0.8	168.4395
-65.80000000000001	2.5	153.2409
-65.80000000000001	55.7	203.1461
-65.69999999999999	-60.8	74.6429
-65.69999999999999	-29.6	155.9222
-65.69999999999999	5.7	158.925
-65.69999999999999	24.5	85.0012
-65.69999999999999	33.9	84.1027
-65.60000000000002	8.8	154.7575
-65.5	-52.3	101.8095
-65.5	11.9	93.7889
-65.5	21.1	78.2616
-65.5	35.8	94.065
-65.5	57.5	207.022
-65.39999999999998	-43.2	89.1024
-65.39999999999998	-33.6	97.978
-65.39999999999998	14.8	88.6975
-65.39999999999998	37.7	94.4904
-65.39999999999998	74.8	115.3588
-65.30000000000001	17.7	75.6459
-65.19999999999999	-72.0	65.5779
-65.19999999999999	39.6	125.2261
-65.10000000000002	59.3	187.0882
-65.0	41.5	118.2359
-64.89999999999998	-64.1	73.0138
-64.89999999999998	-46.9	94.5273
-64.89999999999998	-37.5	110.2477
-64.89999999999998	-20.0	178.3418
-64.89999999999998	-16.4	157.8915
-64.89999999999998	-12.8	156.0863
-64.89999999999998	-9.4	139.643
-64.89999999999998	-5.9	176.3621
-64.89999999999998	26.5	81.301
-64.80000000000001	-55.7	81.3541
-64.80000000000001	-23.7	116.1334
-64.80000000000001	-2.5	186.2359
-64.80000000000001	0.8	153.0808
-64.69999999999999	-27.5	85.4345
-64.69999999999999	4.1	162.0011
-64.69999999999999	43.4	107.8666
-64.69999999999999	61.2	148.3122
-64.60000000000002	-31.5	134.9278
-64.60000000000002	7.3	153.4888
-64.60000000000002	23.0	115.9112
-64.5	10.3	81.0153
-64.5	45.2	143.9529
-64.5	76.6	156.1176
-64.39999999999998	-41.3	95.5127
-64.39999999999998	13.3	77.8862
-64.39999999999998	19.6	118.9979
-64.30000000000001	16.2	77.6348
-64.30000000000001	63.0	135.4521
-64.19999999999999	-50.5	99.5503
-64.19999999999999	47.1	174.253
-64.10000000000002	-59.1	70.6002
-64.10000000000002	28.6	78.286
-64.0	-35.5	112.3137
-64.0	30.5	104.2042
-63.89999999999998	-67.2	77.1067
-63.89999999999998	-18.1	149.4018
-63.89999999999998	-14.6	148.8736
-63.89999999999998	-11.1	154.2895
-63.89999999999998	-7.6	165.561
-63.89999999999998	49.0	184.727
-63.80000000000001	-82.6	111.1907
-63.80000000000001	-75.0	78.1887
-63.80000000000001	-45.0	96.6689
-63.80000000000001	-21.8	125.4099
-63.80000000000001	-4.2	195.8248
-63.80000000000001	-0.8	172.9499
-63.80000000000001	25.0	82.9944
-63.80000000000001	32.5	90.8373
-63.80000000000001	64.8	137.2992
-63.69999999999999	-25.6	116.7576
-63.69999999999999	2.5	155.7849
-63.60000000000002	-29.4	124.0932
-63.60000000000002	5.7	175.3985
-63.60000000000002	50.9	204.3787
-63.5	-53.9	107.4029
-63.5	-39.3	111.244
-63.5	8.8	167.8584
-63.5	21.4	91.9348
-63.5	34.4	89.7121
-63.39999999999998	11.8	68.3769
-63.39999999999998	78.4	196.9716
-63.30000000000001	14.7	86.9868
-63.30000000000001	18.0	87.2404
-63.30000000000001	36.3	88.1236
-63.30000000000001	52.8	213.8658
-63.19999999999999	-33.4	117.138
-63.19999999999999	66.7	152.8196
-63.10000000000002	-62.3	75.4771
-63.10000000000002	-48.6	101.7265
-63.10000000000002	38.3	88.4298
-62.89999999999998	-16.3	149.2047
-62.89999999999998	-12.8	146.1606
-62.89999999999998	-9.3	163.1624
-62.89999999999998	27.0	84.67
-62.89999999999998	54.6	209.0163
-62.80000000000001	-43.1	103.7679
-62.80000000000001	-19.9	116.9787
-62.80000000000001	-5.9	196.5007
-62.80000000000001	-2.5	186.1101
-62.80000000000001	40.2	126.2727
-62.69999999999999	-23.6	114.9575
-62.69999999999999	0.8	160.559
-62.60000000000002	-70.3	77.0054
-62.60000000000002	-57.3	76.8633
-62.60000000000002	-37.3	117.3966
-62.60000000000002	-27.4	103.6395
-62.60000000000002	4.1	172.4162
-62.60000000000002	23.4	73.6307
-62.5	7.2	171.0143
-62.5	42.1	115.8238
-62.5	68.5	81.9047
-62.39999999999998	-31.4	108.9849
-62.39999999999998	10.3	81.4153
-62.39999999999998	19.9	129.0346
-62.39999999999998	56.5	172.3045
-62.30000000000001	-52.1	115.0491
-62.30000000000001	16.5	80.1298
-62.19999999999999	13.2	79.1563
-62.19999999999999	44.0	143.5008
-62.10000000000002	29.0	79.5344
-62.0	-65.5	73.3119
-62.0	-46.7	101.8984
-62.0	58.3	143.7723
-61.89999999999998	-41.1	116.9934
-61.89999999999998	-14.5	138.4624
-61.89999999999998	-11.0	151.7024
-61.89999999999998	-7.6	197.1372
-61.89999999999998	31.0	76.182
-61.89999999999998	45.9	124.1504
-61.80000000000001	-78.0	96.9898
-61.80000000000001	-35.3	109.5717
-61.80000000000001	-21.7	120.2172
-61.80000000000001	-18.0	129.0549
-61.80000000000001	-4.2	200.3784
-61.80000000000001	25.3	75.8532
-61.80000000000001	80.2	196.9612
-61.69999999999999	-0.8	169.1959
-61.60000000000002	-60.6	76.1777
-61.60000000000002	-25.4	118.3542
-61.60000000000002	2.5	157.3066
-61.60000000000002	33.0	97.0058
-61.60000000000002	70.3	88.1502
-61.5	-29.3	109.25
-61.5	5.7	187.0886
-61.5	21.8	74.4204
-61.5	47.8	173.7962
-61.39999999999998	8.7	187.4516
-61.39999999999998	34.9	93.2076
-61.39999999999998	60.2	125.6639
-61.30000000000001	-55.5	89.646
-61.30000000000001	15.0	146.149
-61.30000000000001	18.3	127.3876
-61.19999999999999	-50.2	110.2492
-61.19999999999999	11.7	63.0243
-61.10000000000002	-44.8	110.8073
-61.10000000000002	36.9	87.2654
-61.10000000000002	49.7	166.3481
-61.0	-39.1	121.6478
-61.0	-33.2	109.1359
-60.89999999999998	-73.4	69.7626
-60.89999999999998	-12.7	142.7311
-60.89999999999998	-9.3	188.1199
-60.89999999999998	27.4	82.1152
-60.80000000000001	-19.8	108.8995
-60.80000000000001	-16.2	125.7463
-60.80000000000001	-5.9	213.4715
-60.80000000000001	-2.5	189.403
-60.80000000000001	62.0	118.2951
-60.69999999999999	-23.5	114.4089
-60.69999999999999	0.8	169.4434
-60.69999999999999	38.8	93.0239
-60.60000000000002	23.7	87.4332
-60.60000000000002	51.6	188.4759
-60.60000000000002	72.1	73.46
-60.5	-68.6	73.813
-60.5	-27.3	112.7195
-60.5	4.1	182.9776
-60.39999999999998	7.2	145.8683
-60.39999999999998	20.2	103.5634
-60.39999999999998	40.8	135.1806
-60.30000000000001	-63.8	59.7446
-60.30000000000001	-37.1	108.0686
-60.30000000000001	-31.2	112.5382
-60.30000000000001	10.2	81.2305
-60.30000000000001	16.8	132.9428
-60.19999999999999	-58.8	76.6877
-60.19999999999999	-42.8	120.8911
-60.19999999999999	13.5	90.991
-60.10000000000002	-53.6	111.9493
-60.10000000000002	-48.3	108.8218
-60.10000000000002	29.4	83.0611
-60.10000000000002	53.5	225.0583
-60.0	42.7	127.9331
-60.0	63.8	110.7975
-59.89999999999998	-10.9	167.9067
-59.80000000000001	-17.9	108.1997
-59.80000000000001	-14.4	138.3562
-59.80000000000001	-7.5	207.7302
-59.80000000000001	-4.2	199.302
-59.80000000000001	31.4	71.5021
-59.69999999999999	-21.5	113.0439
-59.69999999999999	-0.8	185.0766
-59.69999999999999	25.7	88.0961
-59.60000000000002	-25.3	114.6586
-59.60000000000002	2.5	179.2928
-59.60000000000002	44.6	137.3457
-59.60000000000002	55.3	158.9085
-59.5	-35.1	108.9717
-59.5	22.1	95.003
-59.5	33.4	106.0074
-59.5	82.0	164.965
-59.39999999999998	-40.8	125.0729
-59.39999999999998	-29.1	119.9129
-59.39999999999998	5.6	186.0216
-59.39999999999998	73.9	137.001
-59.30000000000001	8.7	139.0626
-59.30000000000001	15.2	129.0011
-59.30000000000001	18.6	107.8401
-59.19999999999999	-46.4	106.5717
-59.19999999999999	11.9	73.6325
-59.19999999999999	46.5	163.1169
-59.19999999999999	65.7	117.9253
-59.10000000000002	-51.8	119.1172
-59.10000000000002	35.4	89.3858
-59.0	57.2	131.3031
-58.89999999999998	-57.0	84.1314
-58.89999999999998	-33.0	122.9779
-58.89999999999998	27.7	91.0713
-58.80000000000001	-62.0	73.4297
-58.80000000000001	-19.6	105.0842
-58.80000000000001	-16.1	120.0488
-58.80000000000001	-12.6	157.8613
-58.80000000000001	-9.2	188.9932
-58.80000000000001	37.4	96.4237
-58.69999999999999	-66.9	73.6287
-58.69999999999999	-2.5	200.8362
-58.69999999999999	48.4	169.0424
-58.60000000000002	-71.6	72.2164
-58.60000000000002	-38.9	110.7881
-58.60000000000002	-23.3	112.4705
-58.60000000000002	0.8	193.3727
-58.60000000000002	24.0	94.8268
-58.5	-76.3	91.7344
-58.5	-27.1	110.9655
-58.5	4.0	190.1253
-58.39999999999998	-85.5	119.0259
-58.39999999999998	-80.9	96.8157
-58.39999999999998	-44.5	120.3364
-58.39999999999998	20.5	76.1686
-58.39999999999998	39.3	134.1821
-58.30000000000001	7.1	157.2964
-58.30000000000001	17.0	105.6075
-58.30000000000001	59.1	118.3345
-58.19999999999999	-31.0	132.695
-58.19999999999999	10.4	110.3849
-58.19999999999999	13.7	124.7748
-58.19999999999999	67.5	119.2268
-58.10000000000002	-49.9	111.0434
-58.10000000000002	29.8	85.648
-58.10000000000002	50.3	166.1547
-57.89999999999998	-36.8	106.8737
-57.89999999999998	41.3	139.1499
-57.89999999999998	75.7	166.3499
-57.80000000000001	-55.1	86.9601
-57.80000000000001	-17.8	108.0351
-57.80000000000001	-14.3	138.9678
-57.80000000000001	-10.8	177.5561
-57.80000000000001	-7.5	202.9841
-57.69999999999999	-21.4	114.9201
-57.69999999999999	-4.1	200.5256
-57.69999999999999	26.0	107.0129
-57.69999999999999	31.8	78.4861
-57.60000000000002	-42.5	124.4323
-57.60000000000002	-0.8	202.4862
-57.60000000000002	52.2	145.4611
-57.5	-60.2	72.402
-57.5	-25.1	112.9558
-57.5	2.4	194.5617
-57.5	22.4	83.0674
-57.5	43.2	135.1012
-57.5	60.9	108.5077
-57.30000000000001	-34.8	112.9949
-57.30000000000001	-28.9	127.3064
-57.30000000000001	5.6	180.5318
-57.30000000000001	8.8	129.2824
-57.30000000000001	18.9	76.2985
-57.30000000000001	33.8	85.5758
-57.19999999999999	-48.0	108.9397
-57.19999999999999	12.1	102.9547
-57.19999999999999	15.4	79.0038
-57.10000000000002	-65.1	66.8589
-57.10000000000002	69.3	110.5572
-57.0	45.2	125.6612
-56.89999999999998	-40.5	113.1543
-56.89999999999998	28.1	83.1581
-56.89999999999998	35.8	86.8537
-56.89999999999998	54.1	153.1549
-56.80000000000001	-53.3	100.0074
-56.80000000000001	-15.9	120.2131
-56.80000000000001	-12.5	161.0695
-56.80000000000001	-9.1	185.8716
-56.80000000000001	-5.8	158.0235
-56.69999999999999	-32.8	126.707
-56.69999999999999	-19.5	115.0106
-56.69999999999999	-2.5	202.6747
-56.60000000000002	-69.9	70.2295
-56.60000000000002	-23.1	133.6711
-56.60000000000002	24.3	96.8081
-56.60000000000002	62.7	87.3827
-56.5	-46.1	124.8249
-56.5	0.8	204.9579
-56.5	37.8	94.8475
-56.39999999999998	-26.9	117.6597
-56.39999999999998	4.0	186.988
-56.39999999999998	20.7	76.6484
-56.39999999999998	47.1	137.4644
-56.30000000000001	-58.4	74.1893
-56.30000000000001	7.2	144.6496
-56.30000000000001	17.2	75.191
-56.19999999999999	-38.5	114.1439
-56.19999999999999	10.5	116.9465
-56.19999999999999	13.8	98.434
-56.19999999999999	56.0	135.4415
-56.10000000000002	-30.7	130.821
-56.0	30.1	78.0752
-56.0	39.8	108.6021
-55.89999999999998	-74.6	84.3377
-55.89999999999998	-51.4	112.7092
-55.89999999999998	77.5	212.3615
-55.89999999999998	83.8	108.2976
-55.80000000000001	-63.3	72.206
-55.80000000000001	-17.6	111.7287
-55.80000000000001	-14.1	144.4488
-55.80000000000001	-10.7	178.3339
-55.80000000000001	-7.4	201.9706
-55.80000000000001	49.0	137.0299
-55.69999999999999	-44.1	138.5457
-55.69999999999999	-21.2	128.4179
-55.69999999999999	-4.1	195.826
-55.69999999999999	26.3	75.3153
-55.69999999999999	71.1	129.0121
-55.60000000000002	-36.5	116.0836
-55.60000000000002	-0.8	188.9182
-55.60000000000002	32.2	94.7274
-55.60000000000002	64.5	108.1244
-55.5	-24.9	140.2071
-55.5	22.7	91.1
-55.5	41.7	143.2736
-55.39999999999998	2.4	194.2744
-55.39999999999998	57.8	111.0999
-55.30000000000001	-56.5	86.345
-55.30000000000001	5.6	168.9505
-55.30000000000001	19.1	73.7538
-55.19999999999999	-28.7	133.0068
-55.19999999999999	8.9	121.8187
-55.19999999999999	12.2	94.5142
-55.19999999999999	15.6	91.4569
-55.10000000000002	-49.5	116.0727
-55.10000000000002	-42.2	123.3252
-55.10000000000002	-34.5	123.4451
-55.10000000000002	34.2	106.3813
-55.10000000000002	50.9	131.38
-55.0	-68.1	74.3214
-54.89999999999998	43.7	134.7411
-54.80000000000001	-79.2	106.9969
-54.80000000000001	-15.8	125.7286
-54.80000000000001	-12.4	156.1859
-54.80000000000001	-9.0	195.9431
-54.80000000000001	28.4	97.3495
-54.69999999999999	-19.3	125.9376
-54.69999999999999	-5.7	192.7867
-54.60000000000002	-61.5	73.86
-54.60000000000002	-22.9	162.7111
-54.60000000000002	-2.4	171.3669
-54.60000000000002	24.6	92.7536
-54.60000000000002	36.2	86.1625
-54.5	-40.2	116.5842
-54.5	-32.5	123.2753
-54.5	0.8	173.511
-54.5	59.7	102.9937
-54.39999999999998	-54.7	98.3834
-54.39999999999998	-47.6	128.951
-54.39999999999998	-26.6	134.9973
-54.39999999999998	21.0	83.0177
-54.39999999999998	52.8	129.6492
-54.39999999999998	66.4	113.8267
-54.30000000000001	4.1	188.4726
-54.30000000000001	7.3	134.5324
-54.30000000000001	17.4	78.9201
-54.30000000000001	45.6	111.0396
-54.19999999999999	10.6	113.9168
-54.19999999999999	14.0	94.6927
-54.10000000000002	38.2	136.9281
-54.10000000000002	72.8	148.714
-53.89999999999998	-72.8	81.2069
-53.89999999999998	-38.2	98.2183
-53.89999999999998	30.5	78.3769
-53.80000000000001	-14.0	152.317
-53.80000000000001	-10.6	163.0357
-53.69999999999999	-45.6	120.9101
-53.69999999999999	-17.4	121.5395
-53.69999999999999	-7.3	201.396
-53.69999999999999	-4.1	175.5972
-53.60000000000002	-66.4	78.6501
-53.60000000000002	-52.8	101.229
-53.60000000000002	-21.0	159.324
-53.60000000000002	26.6	82.2309
-53.60000000000002	47.6	123.4257
-53.60000000000002	54.7	129.0184
-53.5	-59.7	74.8991
-53.5	-0.8	163.0792
-53.5	32.5	81.7654
-53.5	40.2	144.2811
-53.39999999999998	-36.2	125.0125
-53.39999999999998	-24.6	158.6558
-53.39999999999998	2.4	168.0256
-53.39999999999998	22.9	76.5868
-53.39999999999998	61.5	90.9695
-53.30000000000001	5.7	149.8475
-53.30000000000001	19.3	84.7571
-53.19999999999999	-28.4	132.9488
-53.19999999999999	9.0	116.8592
-53.19999999999999	12.4	80.0757
-53.19999999999999	15.8	82.1213
-53.19999999999999	79.2	224.3477
-53.10000000000002	-43.7	71.0519
-53.0	68.1	129.5665
-52.89999999999998	-50.9	120.4048
-52.89999999999998	-34.2	123.1938
-52.89999999999998	34.5	80.0028
-52.89999999999998	42.2	130.9191
-52.89999999999998	49.5	122.761
-52.80000000000001	-15.6	133.2505
-52.80000000000001	-12.2	159.0043
-52.80000000000001	-8.9	172.6052
-52.80000000000001	28.7	86.7881
-52.69999999999999	-19.1	135.7201
-52.69999999999999	-5.6	191.053
-52.69999999999999	56.5	103.0091
-52.60000000000002	-57.8	74.0968
-52.60000000000002	-2.4	160.9152
-52.5	-41.7	122.4656
-52.5	-22.7	177.7662
-52.5	24.9	83.7881
-52.39999999999998	-64.5	70.4314
-52.39999999999998	-32.2	118.9883
-52.39999999999998	0.8	147.6114
-52.39999999999998	36.5	81.1939
-52.30000000000001	-71.1	88.1202
-52.30000000000001	-26.3	145.6389
-52.30000000000001	4.1	154.4982
-52.30000000000001	21.2	77.1429
-52.30000000000001	44.1	141.582
-52.19999999999999	-49.0	126.8282
-52.19999999999999	7.4	122.8023
-52.19999999999999	10.7	108.3727
-52.19999999999999	14.1	80.0175
-52.19999999999999	17.6	73.1722
-52.19999999999999	63.3	116.9329
-52.10000000000002	-83.8	124.6252
-52.10000000000002	-77.5	100.4401
-52.10000000000002	51.4	126.5959
-52.10000000000002	74.6	181.9229
-52.0	-39.8	119.906
-52.0	-30.1	126.4339
-51.89999999999998	30.7	82.5915
-51.80000000000001	-56.0	80.4703
-51.80000000000001	-13.8	152.6975
-51.80000000000001	-10.5	157.6014
-51.80000000000001	38.5	143.0151
-51.69999999999999	-17.2	134.3102
-51.69999999999999	-7.2	173.0627
-51.69999999999999	58.4	109.7262
-51.60000000000002	-47.1	115.185
-51.60000000000002	-20.7	172.4195
-51.60000000000002	-4.0	168.552
-51.60000000000002	26.9	86.718
-51.5	-37.8	130.8227
-51.5	-0.8	141.3316
-51.5	46.1	114.9864
-51.39999999999998	-62.7	59.1805
-51.39999999999998	-24.3	182.5361
-51.39999999999998	23.1	84.0089
-51.39999999999998	69.9	158.5082
-51.30000000000001	2.5	136.9682
-51.30000000000001	19.5	75.9388
-51.30000000000001	32.8	85.1487
-51.19999999999999	5.8	134.0093
-51.19999999999999	9.1	109.6158
-51.19999999999999	12.5	96.9963
-51.19999999999999	15.9	76.9918
-51.19999999999999	53.3	127.9278
-51.10000000000002	-54.1	86.4327
-51.10000000000002	-35.8	128.4191
-51.10000000000002	-28.1	127.1302
-51.10000000000002	40.5	142.9487
-51.0	-45.2	134.6593
-50.89999999999998	-69.3	73.3397
-50.89999999999998	65.1	144.1431
-50.80000000000001	-15.4	140.473
-50.80000000000001	-12.1	161.6234
-50.80000000000001	48.0	112.5426
-50.69999999999999	-33.8	120.9696
-50.69999999999999	-18.9	152.2487
-50.69999999999999	-8.8	167.4759
-50.69999999999999	-5.6	188.8192
-50.69999999999999	28.9	80.9648
-50.69999999999999	34.8	101.8135
-50.5	-60.9	62.0386
-50.5	-43.2	72.2224
-50.5	-22.4	191.8864
-50.5	-2.4	158.8605
-50.5	25.1	79.9971
-50.5	60.2	104.6957
-50.39999999999998	-52.2	101.8994
-50.39999999999998	0.8	121.4537
-50.39999999999998	42.5	142.5035
-50.30000000000001	-31.8	123.7736
-50.30000000000001	-26.0	149.7715
-50.30000000000001	4.1	119.0016
-50.30000000000001	21.4	77.9893
-50.19999999999999	7.5	114.8511
-50.19999999999999	10.8	99.9578
-50.19999999999999	14.3	82.997
-50.19999999999999	17.8	79.3097
-50.19999999999999	55.1	116.9097
-50.10000000000002	-75.7	84.2263
-50.10000000000002	-41.3	120.9008
-50.10000000000002	36.8	91.8591
-49.89999999999998	-50.3	123.8393
-49.89999999999998	-29.8	121.2028
-49.89999999999998	49.9	114.9952
-49.80000000000001	-67.5	78.5537
-49.80000000000001	-13.7	147.9356
-49.80000000000001	-10.4	144.1956
-49.80000000000001	31.0	80.1927
-49.69999999999999	-59.1	78.62
-49.69999999999999	-17.0	149.2509
-49.69999999999999	-7.1	177.5436
-49.60000000000002	-39.3	120.2763
-49.60000000000002	-20.5	172.3659
-49.60000000000002	44.5	122.9887
-49.60000000000002	80.9	187.6883
-49.60000000000002	85.5	92.8443
-49.5	-4.0	139.3884
-49.5	27.1	80.3986
-49.5	76.3	211.4966
-49.39999999999998	-24.0	194.2497
-49.39999999999998	-0.8	141.687
-49.39999999999998	23.3	77.7921
-49.39999999999998	38.9	94.7325
-49.39999999999998	71.6	182.5884
-49.30000000000001	-48.4	88.4476
-49.30000000000001	2.5	108.5951
-49.30000000000001	66.9	165.0086
-49.19999999999999	-37.4	126.9592
-49.19999999999999	5.8	118.6643
-49.19999999999999	9.2	94.978
-49.19999999999999	12.6	78.9528
-49.19999999999999	16.1	83.7998
-49.19999999999999	19.6	77.3031
-49.19999999999999	62.0	125.0003
-49.10000000000002	-27.7	120.8103
-49.10000000000002	33.0	78.9666
-49.10000000000002	57.0	113.0169
-49.0	-57.2	77.0242
-48.89999999999998	-35.4	128.9751
-48.89999999999998	51.8	89.2265
-48.80000000000001	-65.7	86.4098
-48.80000000000001	-46.5	129.4069
-48.80000000000001	-11.9	166.1137
-48.80000000000001	46.4	112.9993
-48.69999999999999	-18.6	161.6732
-48.69999999999999	-15.2	155.8764
-48.69999999999999	-8.7	169.5922
-48.60000000000002	-73.9	82.8362
-48.60000000000002	-5.6	164.9131
-48.60000000000002	29.1	73.6559
-48.60000000000002	40.8	126.9866
-48.5	-82.0	127.7659
-48.5	-33.4	130.9962
-48.5	-22.1	180.4694
-48.5	35.1	85.8164
-48.39999999999998	-55.3	82.0317
-48.39999999999998	-44.6	133.0165
-48.39999999999998	-2.5	153.0456
-48.39999999999998	25.3	78.9113
-48.30000000000001	-25.7	148.891
-48.30000000000001	0.8	119.0093
-48.30000000000001	21.5	71.5033
-48.19999999999999	-31.4	132.8588
-48.19999999999999	4.2	111.1244
-48.19999999999999	7.5	112.7435
-48.19999999999999	14.4	74.9493
-48.19999999999999	17.9	74.3742
-48.10000000000002	10.9	89.2984
-48.0	-63.8	63.9706
-47.89999999999998	-53.5	92.9066
-47.89999999999998	-29.4	118.9855
-47.89999999999998	48.3	111.2775
-47.89999999999998	53.6	113.0983
-47.80000000000001	-13.5	158.9986
-47.80000000000001	42.8	126.6999
-47.80000000000001	58.8	112.6823
-47.69999999999999	-16.8	164.1928
-47.69999999999999	-10.2	180.9556
-47.69999999999999	31.2	80.9621
-47.69999999999999	37.1	95.2512
-47.69999999999999	63.8	129.033
-47.60000000000002	-40.8	194.99
-47.60000000000002	-20.2	165.7318
-47.60000000000002	-7.2	184.6577
-47.5	-4.1	161.7519
-47.5	27.3	73.6315
-47.5	68.6	165.4597
-47.39999999999998	-72.1	97.0261
-47.39999999999998	-51.6	99.6306
-47.39999999999998	-23.7	178.6773
-47.30000000000001	-38.8	110.9701
-47.30000000000001	-0.8	130.3328
-47.30000000000001	23.5	79.1091
-47.19999999999999	-62.0	70.7531
-47.19999999999999	2.5	124.1433
-47.19999999999999	5.9	110.768
-47.19999999999999	16.2	73.7538
-47.19999999999999	19.8	71.72
-47.10000000000002	-27.4	124.7819
-47.10000000000002	9.3	101.2704
-47.10000000000002	12.7	75.2845
-47.10000000000002	73.4	178.1913
-47.0	33.2	84.9375
-47.0	39.1	118.8487
-46.89999999999998	-49.7	108.8352
-46.89999999999998	-36.9	112.254
-46.89999999999998	44.8	109.014
-46.80000000000001	-11.7	164.5799
-46.80000000000001	50.2	116.3964
-46.69999999999999	-18.3	175.6872
-46.69999999999999	-15.0	163.0809
-46.69999999999999	55.5	73.8494
-46.60000000000002	-60.2	74.9183
-46.60000000000002	-34.9	116.9393
-46.60000000000002	-8.7	170.0514
-46.5	-47.8	126.8855
-46.5	-21.8	157.589
-46.5	-5.7	177.0085
-46.5	29.3	74.3601
-46.39999999999998	-70.3	80.3648
-46.39999999999998	-33.0	132.6132
-46.39999999999998	-2.5	147.1071
-46.39999999999998	25.4	74.3241
-46.39999999999998	60.6	102.0845
-46.30000000000001	0.8	126.3812
-46.19999999999999	-80.2	117.84
-46.19999999999999	-25.3	145.0028
-46.19999999999999	4.2	104.3895
-46.19999999999999	18.0	76.2468
-46.19999999999999	21.7	73.3252
-46.19999999999999	35.3	94.3658
-46.19999999999999	78.0	222.9921
-46.10000000000002	-45.9	120.2108
-46.10000000000002	-31.0	128.3806
-46.10000000000002	7.6	104.6145
-46.10000000000002	11.0	80.0188
-46.10000000000002	14.5	76.9267
-46.10000000000002	41.1	120.8243
-46.0	-58.3	78.4973
-46.0	46.7	110.852
-46.0	65.5	167.399
-45.89999999999998	-29.0	126.0426
-45.80000000000001	-44.0	118.5719
-45.80000000000001	-13.2	168.9926
-45.69999999999999	-16.5	164.1312
-45.69999999999999	52.1	102.3908
-45.60000000000002	-56.5	75.5166
-45.60000000000002	-19.9	175.1838
-45.60000000000002	-10.3	174.2365
-45.60000000000002	31.4	76.5273
-45.5	-68.5	80.2893
-45.5	-42.1	111.4594
-45.5	-7.2	181.4482
-45.39999999999998	-23.4	138.6917
-45.39999999999998	-4.1	163.3952
-45.39999999999998	27.4	71.9332
-45.39999999999998	37.3	93.4426
-45.39999999999998	57.3	112.2598
-45.39999999999998	70.3	189.9425
-45.30000000000001	23.6	74.0693
-45.19999999999999	-40.2	128.2695
-45.19999999999999	2.5	93.8124
-45.19999999999999	5.9	108.1528
-45.19999999999999	19.9	78.7797
-45.19999999999999	43.1	108.6666
-45.10000000000002	-54.6	76.9565
-45.10000000000002	-27.0	120.0787
-45.10000000000002	9.3	88.3542
-45.10000000000002	12.8	86.5401
-45.10000000000002	16.3	76.7218
-44.89999999999998	-38.3	129.071
-44.89999999999998	48.6	112.9887
-44.89999999999998	62.3	107.2619
-44.80000000000001	-66.7	79.6764
-44.80000000000001	33.4	78.6348
-44.69999999999999	-52.8	83.9962
-44.69999999999999	-36.3	112.8975
-44.69999999999999	-18.0	169.4822
-44.69999999999999	-14.7	172.5432
-44.60000000000002	-78.4	102.9116
-44.60000000000002	-11.8	182.5586
-44.5	-34.4	134.9113
-44.5	-21.4	132.9985
-44.5	-8.8	182.3487
-44.5	39.3	108.398
-44.5	53.9	79.8131
-44.39999999999998	-50.9	100.7564
-44.39999999999998	-5.7	174.6243
-44.39999999999998	29.4	76.0678
-44.30000000000001	-2.5	133.3005
-44.30000000000001	25.6	71.4345
-44.19999999999999	-64.8	81.3585
-44.19999999999999	-32.5	82.9857
-44.19999999999999	-25.0	134.7846
-44.19999999999999	0.8	80.1279
-44.19999999999999	4.2	116.5709
-44.19999999999999	21.8	75.1101
-44.19999999999999	45.0	107.5145
-44.19999999999999	75.0	208.4292
-44.19999999999999	82.6	149.0717
-44.10000000000002	-49.0	79.6524
-44.10000000000002	7.6	92.2941
-44.10000000000002	11.1	80.7962
-44.10000000000002	14.6	80.9958
-44.10000000000002	18.1	75.4585
-44.10000000000002	67.2	175.8155
-44.0	-30.5	114.9569
-44.0	35.5	92.3105
-43.89999999999998	-28.6	114.9155
-43.89999999999998	59.1	101.4648
-43.80000000000001	-47.1	126.8185
-43.80000000000001	50.5	120.9437
-43.69999999999999	-63.0	64.2314
-43.69999999999999	-16.2	178.9618
-43.60000000000002	-19.6	156.3479
-43.60000000000002	-13.3	189.3539
-43.60000000000002	41.3	106.5796
-43.5	-76.6	91.9799
-43.5	-45.2	133.9245
-43.5	-10.3	176.9312
-43.39999999999998	-23.0	120.2792
-43.39999999999998	-7.3	172.9785
-43.39999999999998	31.5	74.4482
-43.30000000000001	-61.2	66.8835
-43.30000000000001	-43.4	128.4035
-43.30000000000001	-4.1	146.0405
-43.30000000000001	27.5	71.9155
-43.19999999999999	-0.8	127.6343
-43.19999999999999	2.5	120.9259
-43.19999999999999	23.7	73.088
-43.19999999999999	55.7	107.7563
-43.10000000000002	-26.5	131.4844
-43.10000000000002	5.9	90.5093
-43.10000000000002	9.4	85.2987
-43.10000000000002	12.8	90.7227
-43.10000000000002	16.4	82.4256
-43.10000000000002	20.0	75.3374
-43.10000000000002	37.5	79.2613
-43.10000000000002	46.9	120.5983
-43.10000000000002	64.1	130.2598
-43.0	-41.5	133.0235
-42.89999999999998	-59.3	80.343
-42.80000000000001	-39.6	120.317
-42.80000000000001	72.0	196.2409
-42.69999999999999	-17.7	158.6855
-42.60000000000002	-74.8	86.8158
-42.60000000000002	-37.7	118.8623
-42.60000000000002	-14.8	179.3797
-42.60000000000002	33.6	75.0145
-42.60000000000002	43.2	110.1375
-42.5	-57.5	70.993
-42.5	-35.8	119.6318
-42.5	-21.1	128.1529
-42.5	-11.9	190.1388
-42.5	52.3	118.9296
-42.39999999999998	-8.8	156.9961
-42.30000000000001	-33.9	106.1131
-42.30000000000001	-24.5	129.1245
-42.30000000000001	-5.7	157.509
-42.30000000000001	29.6	71.7312
-42.30000000000001	60.8	88.9822
-42.19999999999999	-55.7	76.9896
-42.19999999999999	-2.5	110.9989
-42.19999999999999	0.8	117.188
-42.19999999999999	25.7	74.7437
-42.10000000000002	-32.0	122.9236
-42.10000000000002	4.2	106.9879
-42.10000000000002	7.7	89.8753
-42.10000000000002	11.1	74.1236
-42.10000000000002	14.6	82.6894
-42.10000000000002	18.2	82.4635
-42.10000000000002	21.9	74.0148
-42.10000000000002	39.5	107.3965
-42.0	-53.8	75.6246
-42.0	-30.0	110.965
-42.0	48.8	118.8659
-41.89999999999998	-73.0	99.8235
-41.89999999999998	-28.1	120.3961
-41.89999999999998	79.6	204.1435
-41.80000000000001	68.9	174.5218
-41.69999999999999	-52.0	97.04
-41.69999999999999	35.6	89.0306
-41.69999999999999	57.5	96.9581
-41.60000000000002	-19.2	129.3515
-41.5	-50.1	107.1329
-41.5	-16.3	157.126
-41.5	45.2	115.3235
-41.39999999999998	-71.2	89.7798
-41.39999999999998	-22.6	127.0008
-41.39999999999998	-13.4	165.6065
-41.30000000000001	-48.2	74.8661
-41.30000000000001	-10.4	158.8304
-41.30000000000001	-7.3	148.9547
-41.30000000000001	31.6	70.9098
-41.19999999999999	-4.1	138.986
-41.19999999999999	-0.8	122.423
-41.19999999999999	23.8	76.2497
-41.19999999999999	27.6	76.228
-41.10000000000002	-46.4	128.1075
-41.10000000000002	-26.1	129.1155
-41.10000000000002	2.5	109.9026
-41.10000000000002	6.0	87.5632
-41.10000000000002	9.4	88.7604
-41.10000000000002	12.9	86.6816
-41.10000000000002	16.4	86.4985
-41.10000000000002	20.1	79.704
-41.10000000000002	41.4	110.156
-41.10000000000002	54.1	106.7703
-41.0	65.8	149.0084
-40.89999999999998	-69.4	84.2893
-40.89999999999998	-44.5	126.2328
-40.80000000000001	-42.6	124.8209
-40.69999999999999	37.6	81.5088
-40.69999999999999	50.6	125.4937
-40.60000000000002	-67.5	82.3181
-40.60000000000002	-40.8	114.1376
-40.60000000000002	76.6	215.9586
-40.5	-38.9	118.6621
-40.5	-20.7	118.8795
-40.5	-17.8	131.7505
-40.5	62.6	80.009
-40.39999999999998	-37.0	123.9307
-40.39999999999998	-14.9	153.0068
-40.39999999999998	33.7	74.5844
-40.30000000000001	-35.2	119.8688
-40.30000000000001	-24.1	118.7243
-40.30000000000001	-11.9	169.9184
-40.30000000000001	47.0	110.9452
-40.19999999999999	-65.7	79.5544
-40.19999999999999	-33.3	122.7681
-40.19999999999999	-8.9	143.5618
-40.19999999999999	-5.7	111.9433
-40.19999999999999	29.6	71.3156
-40.10000000000002	-31.4	114.8518
-40.10000000000002	-2.5	110.0774
-40.10000000000002	0.9	102.9777
-40.10000000000002	4.3	63.1058
-40.10000000000002	7.7	82.99
-40.10000000000002	11.1	90.9687
-40.10000000000002	14.7	88.9852
-40.10000000000002	18.3	84.0279
-40.10000000000002	21.9	76.2066
-40.10000000000002	25.7	76.9609
-40.0	-63.9	76.622
-40.0	-29.5	122.4526
-40.0	43.4	108.1242
-40.0	59.3	81.7551
-39.89999999999998	-27.6	128.8751
-39.69999999999999	-62.1	69.6698
-39.69999999999999	39.6	109.8015
-39.69999999999999	73.6	177.0002
-39.60000000000002	55.9	94.8067
-39.5	-60.2	74.7968
-39.39999999999998	-22.2	122.3845
-39.39999999999998	-19.3	112.9992
-39.39999999999998	35.7	77.5489
-39.30000000000001	-58.4	75.2405
-39.30000000000001	-16.4	137.4178
-39.30000000000001	-13.4	147.0572
-39.30000000000001	52.4	105.0016
-39.19999999999999	-56.6	75.4073
-39.19999999999999	-10.4	142.3749
-39.19999999999999	-7.3	110.9472
-39.19999999999999	31.7	70.7297
-39.10000000000002	-25.6	116.419
-39.10000000000002	-4.1	99.4147
-39.10000000000002	-0.8	97.5589
-39.10000000000002	2.6	97.0141
-39.10000000000002	6.0	86.9844
-39.10000000000002	20.1	78.677
-39.10000000000002	23.8	82.5734
-39.10000000000002	27.7	77.6039
-39.10000000000002	70.5	174.6541
-39.0	-54.7	76.8408
-39.0	9.4	90.887
-39.0	12.9	87.162
-39.0	16.5	96.7527
-39.0	48.9	118.7242
-38.89999999999998	-52.9	76.664
-38.80000000000001	-51.1	111.5223
-38.69999999999999	-49.2	75.1614
-38.69999999999999	45.3	115.3396
-38.69999999999999	67.4	136.3743
-38.60000000000002	-47.4	110.1051
-38.5	-45.6	130.8894
-38.5	41.5	116.5601
-38.39999999999998	-43.7	126.9916
-38.39999999999998	-41.9	112.5714
-38.39999999999998	37.7	94.9263
-38.39999999999998	64.2	68.9519
-38.30000000000001	-40.0	100.9611
-38.30000000000001	-23.6	113.6906
-38.30000000000001	-20.7	116.7789
-38.19999999999999	-38.2	103.4473
-38.19999999999999	-36.3	118.2387
-38.19999999999999	-17.8	118.3223
-38.19999999999999	-14.9	135.4815
-38.19999999999999	-11.9	139.0438
-38.19999999999999	33.7	74.7742
-38.10000000000002	-34.5	120.9704
-38.10000000000002	-32.7	114.9495
-38.10000000000002	-8.9	118.8025
-38.10000000000002	-5.8	88.4297
-38.10000000000002	-2.5	83.5401
-38.10000000000002	0.9	96.5345
-38.10000000000002	22.0	79.2818
-38.10000000000002	25.8	80.9126
-38.10000000000002	29.7	76.213
-38.10000000000002	61.0	75.6896
-38.0	-30.8	114.5884
-38.0	-29.0	112.7833
-38.0	4.3	88.0182
-38.0	7.7	84.9208
-38.0	11.2	92.96
-38.0	14.7	80.97
-38.0	18.3	91.2819
-37.89999999999998	-27.1	118.9857
-37.89999999999998	57.6	79.3174
-37.69999999999999	54.2	80.747
-37.60000000000002	50.7	117.662
-37.39999999999998	47.1	108.0943
-37.30000000000001	43.4	104.9662
-37.19999999999999	-25.1	72.6505
-37.19999999999999	39.6	79.3925
-37.10000000000002	-22.2	116.9704
-37.10000000000002	-19.3	112.782
-37.10000000000002	-16.4	124.9242
-37.10000000000002	-13.4	134.6208
-37.10000000000002	-10.4	129.0037
-37.10000000000002	-7.3	100.3301
-37.10000000000002	31.7	74.1339
-37.10000000000002	35.7	70.9983
-37.0	-4.2	87.0021
-37.0	-0.8	91.5119
-37.0	2.6	81.843
-37.0	6.0	75.1309
-37.0	9.4	74.4467
-37.0	12.9	77.1875
-37.0	16.5	89.81
-37.0	20.1	88.5174
-37.0	23.9	93.1453
-37.0	27.7	80.9135
-36.0	-88.2	156.6035
-36.0	-86.4	157.0071
-36.0	-84.6	144.5115
-36.0	-82.8	144.673
-36.0	-80.9	152.381
-36.0	-79.1	119.7672
-36.0	-77.3	105.015
-36.0	-75.5	98.5407
-36.0	-73.7	99.4008
-36.0	-71.9	88.8611
-36.0	-70.1	72.8535
-36.0	-68.3	68.459
-36.0	-66.4	85.7908
-36.0	-64.6	74.9729
-36.0	-62.8	74.6164
-36.0	-61.0	69.2176
-36.0	-59.2	71.5454
-36.0	-57.4	70.7253
-36.0	-55.6	79.4667
-36.0	-53.8	107.5352
-36.0	-51.9	112.0931
-36.0	-50.1	118.7827
-36.0	-48.3	112.6911
-36.0	-46.5	120.9359
-36.0	-44.7	119.4435
-36.0	-42.9	116.45
-36.0	-41.1	113.2423
-36.0	-39.3	112.973
-36.0	-37.4	114.6276
-36.0	-35.6	114.7976
-36.0	-33.8	108.9699
-36.0	-32.0	111.3424
-36.0	-30.2	98.7106
-36.0	-28.4	116.0935
-36.0	-26.6	110.3555
-36.0	-23.6	100.993
-36.0	-20.7	107.589
-36.0	-17.8	106.7371
-36.0	-14.9	135.4774
-36.0	-11.9	135.5548
-36.0	-8.9	116.5658
-36.0	-5.8	95.0038
-36.0	-2.5	82.7885
-36.0	0.9	94.4902
-36.0	4.3	81.9013
-36.0	7.7	76.1597
-36.0	11.2	98.9914
-36.0	14.7	75.4407
-36.0	18.3	86.9692
-36.0	22.0	86.8963
-36.0	25.8	96.2053
-36.0	29.7	89.3447
-36.0	33.7	70.1397
-36.0	37.7	72.8474
-36.0	41.5	88.8981
-36.0	45.3	90.1272
-36.0	48.9	110.2902
-36.0	52.5	88.9651
-36.0	55.9	73.0342
-36.0	59.3	69.5924
-36.0	62.6	64.3513
-36.0	65.8	75.2715
-36.0	69.0	127.0598
-36.0	72.1	167.2774
-36.0	75.2	194.0289
-36.0	78.2	213.1089
-36.0	81.2	154.1943
-36.0	84.1	90.9703
-36.0	87.1	91.1063
-35.0	-4.2	98.9076
-35.0	-0.8	91.2503
-35.0	2.6	74.8732
-35.0	6.0	80.4602
-35.0	9.4	84.9198
-35.0	12.9	85.1337
-35.0	16.5	92.0753
-35.0	20.1	84.9982
-35.0	23.9	94.9067
-35.0	27.7	94.8997
-34.89999999999998	-22.2	114.7928
-34.89999999999998	-19.3	99.9946
-34.89999999999998	-16.4	96.9375
-34.89999999999998	-13.4	121.6704
-34.89999999999998	-10.4	124.9045
-34.89999999999998	-7.3	112.6399
-34.89999999999998	31.7	80.5609
-34.89999999999998	35.7	69.7056
-34.80000000000001	-25.1	105.4544
-34.80000000000001	39.6	76.4031
-34.69999999999999	43.4	72.9695
-34.60000000000002	47.1	95.3321
-34.39999999999998	50.7	94.6362
-34.30000000000001	54.2	74.114
-34.10000000000002	-27.1	108.0603
-34.10000000000002	57.6	75.0489
-34.0	-30.8	91.681
-34.0	-29.0	111.6167
-34.0	4.3	76.4702
-34.0	7.7	75.3166
-34.0	11.2	94.8671
-34.0	14.7	116.3776
-34.0	18.3	85.6991
-33.89999999999998	-34.5	112.1105
-33.89999999999998	-32.7	94.9324
-33.89999999999998	-8.9	124.5691
-33.89999999999998	-5.8	100.6123
-33.89999999999998	-2.5	90.993
-33.89999999999998	0.9	76.667
-33.89999999999998	22.0	94.5011
-33.89999999999998	25.8	77.4272
-33.89999999999998	29.7	94.7889
-33.89999999999998	61.0	73.3735
-33.80000000000001	-38.2	114.9321
-33.80000000000001	-36.3	114.7328
-33.80000000000001	-17.8	98.6676
-33.80000000000001	-14.9	116.5483
-33.80000000000001	-11.9	138.724
-33.80000000000001	33.7	72.1503
-33.69999999999999	-40.0	102.9357
-33.69999999999999	-23.6	116.8065
-33.69999999999999	-20.7	75.4237
-33.60000000000002	-43.7	93.5716
-33.60000000000002	-41.9	106.5526
-33.60000000000002	37.7	70.4041
-33.60000000000002	64.2	74.4469
-33.5	-45.6	118.3362
-33.5	41.5	72.3411
-33.39999999999998	-47.4	111.5792
-33.30000000000001	-49.2	114.9619
-33.30000000000001	45.3	86.6088
-33.30000000000001	67.4	83.3232
-33.19999999999999	-51.1	116.2432
-33.10000000000002	-52.9	96.9282
-33.0	-54.7	95.4648
-33.0	9.4	94.8489
-33.0	12.9	102.985
-33.0	16.5	73.8445
-33.0	48.9	86.9889
-32.89999999999998	-25.6	105.0849
-32.89999999999998	-4.1	94.9431
-32.89999999999998	-0.8	83.2183
-32.89999999999998	2.6	83.5955
-32.89999999999998	6.0	69.0619
-32.89999999999998	20.1	88.9506
-32.89999999999998	23.8	72.2389
-32.89999999999998	27.7	75.8871
-32.89999999999998	70.5	126.7179
-32.80000000000001	-56.6	78.0026
-32.80000000000001	-10.4	134.9967
-32.80000000000001	-7.3	112.9608
-32.80000000000001	31.7	76.9944
-32.69999999999999	-58.4	69.5348
-32.69999999999999	-16.4	104.9575
-32.69999999999999	-13.4	129.1824
-32.69999999999999	52.4	75.2347
-32.60000000000002	-22.2	100.1593
-32.60000000000002	-19.3	90.4205
-32.60000000000002	35.7	69.6019
-32.5	-60.2	65.9072
-32.39999999999998	55.9	67.7546
-32.30000000000001	-62.1	74.7899
-32.30000000000001	39.6	69.9714
-32.30000000000001	73.6	165.6137
-32.10000000000002	-27.6	111.3784
-32.0	-63.9	79.665
-32.0	-29.5	95.0296
-32.0	43.4	74.892
-32.0	59.3	70.4029
-31.899999999999977	-31.4	90.102
-31.899999999999977	-2.5	92.4024
-31.899999999999977	0.9	77.7339
-31.899999999999977	4.3	73.7484
-31.899999999999977	7.7	96.974
-31.899999999999977	11.1	92.9466
-31.899999999999977	14.7	100.969
-31.899999999999977	18.3	84.9893
-31.899999999999977	21.9	103.1603
-31.899999999999977	25.7	73.4615
-31.80000000000001	-65.7	86.2796
-31.80000000000001	-33.3	92.5099
-31.80000000000001	-8.9	126.9155
-31.80000000000001	-5.7	72.0949
-31.80000000000001	29.6	76.5478
-31.69999999999999	-35.2	100.0102
-31.69999999999999	-24.1	103.4285
-31.69999999999999	-11.9	124.9595
-31.69999999999999	47.0	76.8509
-31.600000000000023	-37.0	100.311
-31.600000000000023	-14.9	82.2183
-31.600000000000023	33.7	82.4503
-31.5	-38.9	105.0618
-31.5	-20.7	98.566
-31.5	-17.8	91.5329
-31.5	62.6	75.8003
-31.399999999999977	-67.5	88.5338
-31.399999999999977	-40.8	99.1481
-31.399999999999977	76.6	193.9983
-31.30000000000001	37.6	69.8239
-31.30000000000001	50.6	73.7014
-31.19999999999999	-42.6	106.9293
-31.100000000000023	-69.4	79.9927
-31.100000000000023	-44.5	114.7198
-31.0	65.8	72.0334
-30.899999999999977	-46.4	117.0637
-30.899999999999977	-26.1	110.6659
-30.899999999999977	2.5	76.7179
-30.899999999999977	6.0	75.6413
-30.899999999999977	9.4	99.7209
-30.899999999999977	12.9	92.0566
-30.899999999999977	16.4	98.5961
-30.899999999999977	20.1	101.5991
-30.899999999999977	41.4	70.7584
-30.899999999999977	54.1	75.1826
-30.80000000000001	-4.1	92.8787
-30.80000000000001	-0.8	75.5602
-30.80000000000001	23.8	75.8649
-30.80000000000001	27.6	78.8269
-30.69999999999999	-48.2	122.3483
-30.69999999999999	-10.4	122.8455
-30.69999999999999	-7.3	98.6575
-30.69999999999999	31.6	80.5961
-30.600000000000023	-71.2	83.1461
-30.600000000000023	-22.6	86.965
-30.600000000000023	-13.4	114.1151
-30.5	-50.1	120.0468
-30.5	-16.3	84.7496
-30.5	45.2	72.9928
-30.399999999999977	-19.2	94.5483
-30.30000000000001	-52.0	130.7252
-30.30000000000001	35.6	74.4998
-30.30000000000001	57.5	69.546
-30.19999999999999	68.9	73.0053
-30.100000000000023	-73.0	95.5284
-30.100000000000023	-28.1	97.7062
-30.100000000000023	79.6	189.5506
-30.0	-53.8	112.8149
-30.0	-30.0	94.3634
-30.0	48.8	74.8359
-29.899999999999977	-32.0	81.7398
-29.899999999999977	4.2	74.9024
-29.899999999999977	7.7	96.9284
-29.899999999999977	11.1	106.9866
-29.899999999999977	14.6	92.4297
-29.899999999999977	18.2	98.616
-29.899999999999977	21.9	79.8612
-29.899999999999977	39.5	69.7374
-29.80000000000001	-55.7	89.8049
-29.80000000000001	-2.5	81.5295
-29.80000000000001	0.8	78.7905
-29.80000000000001	25.7	79.0114
-29.69999999999999	-33.9	80.0703
-29.69999999999999	-24.5	105.4887
-29.69999999999999	-5.7	74.7735
-29.69999999999999	29.6	82.59
-29.69999999999999	60.8	71.0248
-29.600000000000023	-8.8	123.9998
-29.5	-57.5	62.2836
-29.5	-35.8	83.9885
-29.5	-21.1	98.6054
-29.5	-11.9	101.6708
-29.5	52.3	76.965
-29.399999999999977	-74.8	104.8278
-29.399999999999977	-37.7	97.2099
-29.399999999999977	-14.8	93.5616
-29.399999999999977	33.6	89.4314
-29.399999999999977	43.2	73.0523
-29.30000000000001	-17.7	82.8172
-29.19999999999999	-39.6	93.9356
-29.19999999999999	72.0	124.732
-29.100000000000023	-59.3	69.0
-29.0	-41.5	88.7318
-28.899999999999977	-26.5	105.8013
-28.899999999999977	5.9	66.1004
-28.899999999999977	9.4	95.5565
-28.899999999999977	12.8	86.8464
-28.899999999999977	16.4	93.4651
-28.899999999999977	20.0	113.3165
-28.899999999999977	37.5	73.1845
-28.899999999999977	46.9	70.1944
-28.899999999999977	64.1	76.458
-28.80000000000001	-0.8	74.995
-28.80000000000001	2.5	75.9231
-28.80000000000001	23.7	81.7754
-28.80000000000001	55.7	75.4793
-28.69999999999999	-61.2	76.04
-28.69999999999999	-43.4	100.4717
-28.69999999999999	-4.1	84.972
-28.69999999999999	27.5	78.5425
-28.600000000000023	-23.0	97.2372
-28.600000000000023	-7.3	98.0376
-28.600000000000023	31.5	78.4028
-28.5	-76.6	120.5157
-28.5	-45.2	110.0708
-28.5	-10.3	108.906
-28.399999999999977	-19.6	92.1554
-28.399999999999977	-13.3	98.9185
-28.399999999999977	41.3	71.6816
-28.30000000000001	-63.0	75.3289
-28.30000000000001	-16.2	73.1814
-28.19999999999999	-47.1	120.9243
-28.19999999999999	50.5	80.3528
-28.100000000000023	-28.6	94.5347
-28.100000000000023	59.1	69.7272
-28.0	-30.5	86.6566
-28.0	35.5	84.3645
-27.899999999999977	-49.0	122.1012
-27.899999999999977	7.6	101.9614
-27.899999999999977	11.1	105.0092
-27.899999999999977	14.6	81.4366
-27.899999999999977	18.1	106.1039
-27.899999999999977	67.2	73.7072
-27.80000000000001	-64.8	74.285
-27.80000000000001	-32.5	82.2514
-27.80000000000001	-25.0	100.0745
-27.80000000000001	0.8	72.2976
-27.80000000000001	4.2	78.3638
-27.80000000000001	21.8	114.821
-27.80000000000001	45.0	72.2726
-27.80000000000001	75.0	157.0318
-27.80000000000001	82.6	119.1722
-27.69999999999999	-2.5	81.2835
-27.69999999999999	25.6	75.6178
-27.600000000000023	-50.9	114.4788
-27.600000000000023	-5.7	86.2504
-27.600000000000023	29.4	76.9115
-27.5	-34.4	81.1099
-27.5	-21.4	93.4909
-27.5	-8.8	100.4799
-27.5	39.3	66.5255
-27.5	53.9	80.8969
-27.399999999999977	-78.4	146.6049
-27.399999999999977	-11.8	109.4889
