lon	lat	heat-flow (mW/m2)
11.657	-5.851	46.9
11.658	-4.692	79.4
11.658	52.56	50.0
11.66	-4.877	83.1
11.661	-4.938	81.9
11.663	-5.416	54.8
11.663	58.588	40.0
11.665	-5.408	55.5
11.666	-5.368	58.6
11.666	-5.368	58.7
11.666	-5.368	58.7
11.666	-5.368	58.7
11.667	-5.424	54.3
11.668	-5.738	48.8
11.668	-5.036	77.6
11.673	-5.172	71.8
11.68	-5.59	46.8
11.685	-5.578	46.9
11.685	-5.131	72.7
11.688	-4.939	81.1
11.692	50.11	56.0
11.693	-5.807	47.7
11.693	-5.12	72.8
11.696	-5.48	50.5
11.697	-4.899	81.8
11.699	-5.2	70.3
11.702	-5.419	54.7
11.703	-4.896	81.7
11.703	-4.879	82.0
11.704	-5.223	69.8
11.705	-5.804	47.5
11.707	47.412	61.0
11.707	47.45	65.0
11.707	47.482	60.0
11.708	-5.603	47.1
11.708	-5.603	47.1
11.709	-5.543	47.8
11.712	-5.882	45.1
11.712	-4.892	81.5
11.714	-5.827	46.9
11.714	-5.23	69.3
11.719	-5.556	47.6
11.722	-4.696	78.2
11.724	-5.189	69.3
11.727	-5.006	76.4
11.731	-5.084	72.2
11.741	-5.189	68.4
11.744	-5.574	47.5
11.745	-5.314	58.8
11.753	-6.138	43.4
11.753	-5.108	69.8
11.755	-4.859	80.5
11.757	-5.346	56.9
11.759	-5.185	67.3
11.761	-4.994	75.0
11.763	-5.49	49.7
11.771	-5.69	47.8
11.775	52.3	96.0
11.776	-5.177	66.3
11.782	-5.2	65.7
11.783	-4.266	69.4
11.786	-5.218	56.4
11.794	-5.306	55.8
11.794	-5.058	69.4
11.794	-5.058	70.5
11.794	-5.023	71.4
11.802	-6.952	51.4
11.804	-4.68	75.5
11.805	-5.225	55.3
11.806	-5.374	53.2
11.809	-4.688	75.8
11.809	-4.688	75.9
11.81	-5.744	47.8
11.811	-5.243	54.7
11.811	-5.243	55.1
11.814	-5.658	47.0
11.814	-5.658	47.0
11.814	-5.658	47.8
11.815	-5.061	67.8
11.816	-5.374	52.8
11.817	-4.48	67.3
11.821	-5.685	47.9
11.823	-5.241	54.3
11.823	-5.241	54.3
11.826	-5.781	47.8
11.826	-5.067	66.8
11.826	-5.067	66.8
11.828	-6.093	48.9
11.832	-5.197	53.3
11.833	42.9	121.0
11.838	-5.246	53.5
11.838	-5.246	53.6
11.84	-4.705	76.6
11.842	-5.058	66.4
11.844	-5.33	52.4
11.844	-5.083	64.8
11.847	-7.544	57.4
11.847	-5.062	65.8
11.85	38.03	26.0
11.851	-5.253	52.8
11.851	-5.253	52.8
11.852	-5.639	48.1
11.854	-5.867	48.4
11.854	-4.772	79.1
11.858	-5.011	68.8
11.863	47.728	60.0
11.863	47.728	67.0
11.867	-5.594	48.3
11.87	-4.91	75.9
11.871	-5.716	48.1
11.871	-5.253	51.9
11.873	-5.81	48.2
11.883	44.198	23.0
11.885	-5.524	48.8
11.888	-5.22	51.5
11.892	52.625	70.0
11.897	-5.179	51.3
11.918	-6.11	52.2
11.919	-5.309	50.6
11.92	-5.282	50.8
11.922	-5.644	48.9
11.923	-5.19	51.4
11.925	-6.882	54.0
11.928	-6.196	46.8
11.928	-4.724	80.4
11.94	-4.68	78.7
11.942	-6.827	56.2
11.942	-5.388	50.6
11.949	-4.71	81.1
11.961	-5.3	51.4
11.963	-6.139	51.1
11.964	-5.336	51.5
11.971	-4.772	84.5
11.974	-4.805	84.3
11.975	-4.736	84.1
11.981	-4.835	83.7
11.984	54.782	75.0
11.988	-5.311	52.7
11.989	-5.562	51.7
11.991	-5.419	52.9
12.0	-5.726	48.1
12.0	63.75	50.0
12.006	-5.47	53.8
12.006	-5.445	53.9
12.006	-5.445	53.9
12.009	-6.202	47.1
12.012	-5.744	47.7
12.039	-6.11	51.6
12.045	-5.68	49.4
12.045	49.878	64.0
12.046	-5.914	49.5
12.052	-5.52	56.0
12.054	-5.416	57.9
12.057	-5.686	49.3
12.066	-7.11	44.1
12.066	-5.348	59.2
12.07	-5.422	59.4
12.074	-5.708	48.4
12.085	44.133	25.0
12.092	-4.55	76.3
12.098	-5.737	47.3
12.1	-4.738	93.5
12.1	36.333	99.0
12.1	36.483	82.0
12.111	-4.808	93.1
12.112	49.437	66.0
12.115	-5.143	64.2
12.12	-4.836	91.7
12.122	-5.89	46.9
12.136	-5.848	45.9
12.156	-4.856	91.0
12.157	-5.626	55.5
12.163	-6.224	50.5
12.166	-5.28	69.7
12.168	-6.103	50.7
12.168	-5.968	48.9
12.169	-5.16	68.3
12.17	-5.579	60.1
12.171	-6.551	64.2
12.172	52.99	64.0
12.176	-6.408	58.5
12.18	-5.579	60.6
12.182	49.408	72.0
12.184	-4.663	92.8
12.197	-6.098	51.3
12.199	-5.832	46.6
12.202	-7.428	55.1
12.208	53.04	58.0
12.219	-6.403	60.7
12.228	-5.534	66.6
12.232	-5.812	47.9
12.233	36.5	74.0
12.234	-6.3	56.9
12.238	-6.348	59.2
12.239	-5.445	72.8
12.244	-6.838	63.5
12.252	-7.29	48.6
12.255	-5.327	75.6
12.26	-5.661	56.5
12.271	-7.106	53.8
12.271	-5.379	76.0
12.28	-6.605	66.0
12.283	-5.686	55.8
12.284	-7.054	58.4
12.288	-6.638	66.1
12.292	-5.551	67.3
12.293	-6.884	66.8
12.301	-6.97	65.0
12.308	53.085	59.0
12.313	-6.938	67.4
12.32	-5.995	56.0
12.325	-7.011	65.6
12.325	-6.735	67.1
12.329	-7.074	62.1
12.329	-6.875	69.5
12.33	-5.515	70.6
12.331	-6.993	67.1
12.333	52.783	65.0
12.336	-7.101	60.8
12.34	-6.966	69.1
12.34	-6.929	69.9
12.341	-7.158	57.5
12.346	-7.07	64.2
12.348	-7.128	60.2
12.353	-6.869	70.7
12.356	-6.909	71.1
12.364	-6.896	71.5
12.365	-5.388	75.8
12.366	-7.12	62.8
12.366	-7.101	64.1
12.366	-6.939	71.5
12.367	-5.225	67.1
12.367	-5.225	74.3
12.373	-6.975	71.3
12.376	-7.011	70.3
12.376	-6.956	71.9
12.38	-5.917	58.7
12.383	-6.367	62.3
12.386	-7.175	61.1
12.387	-7.127	64.3
12.387	-7.074	67.8
12.389	-7.205	59.6
12.39	-6.75	66.2
12.39	-5.669	61.4
12.391	-6.861	71.3
12.392	-7.237	58.4
12.4	38.333	44.0
12.402	-6.975	72.8
12.407	-7.05	70.7
12.408	50.592	60.0
12.408	53.14	65.0
12.409	-6.856	70.8
12.41	-5.345	74.7
12.411	-7.067	70.1
12.411	-7.067	70.1
12.411	-6.901	72.4
12.412	-7.302	58.3
12.412	-6.927	73.0
12.413	50.107	71.0
12.416	-7.124	67.0
12.418	-7.164	64.7
12.418	-7.164	64.7
12.421	-6.944	72.9
12.421	-6.944	73.2
12.422	-6.826	68.8
12.425	-5.297	73.6
12.428	-7.052	71.7
12.433	-6.842	69.1
12.434	-5.775	60.5
12.436	-6.906	72.0
12.436	-5.633	64.1
12.442	-7.266	62.1
12.456	-7.135	69.2
12.456	-7.026	73.1
12.464	-6.945	72.2
12.465	-7.256	64.7
12.465	-7.124	70.2
12.469	-7.527	56.4
12.476	-7.087	71.9
12.49	-5.86	64.1
12.506	-6.961	69.8
12.512	55.688	43.0
12.514	-6.797	57.6
12.529	-7.221	70.6
12.531	-6.894	63.0
12.575	50.742	55.0
12.579	-7.31	73.7
12.583	36.8	99.0
12.583	54.283	64.8
12.583	54.283	82.0
12.583	54.283	61.9
12.583	54.283	77.3
12.583	54.283	55.5
12.585	-7.342	74.2
12.65	49.883	55.0
12.663	49.817	56.0
12.667	49.8	50.0
12.677	49.77	58.0
12.697	49.768	54.0
12.698	-7.644	65.8
12.7	49.883	70.0
12.713	50.098	81.0
12.733	50.117	45.0
12.753	-6.779	39.6
12.767	49.75	54.0
12.775	50.375	59.0
12.783	36.583	72.0
12.783	49.4	53.0
12.8	50.125	92.0
12.805	47.32	60.0
12.817	37.05	101.0
12.817	37.05	84.0
12.845	50.433	104.0
12.868	50.435	121.0
12.87	50.437	107.0
12.883	36.567	99.0
12.883	49.733	61.0
12.9	50.418	83.0
12.917	50.417	93.0
12.917	50.417	86.0
12.917	54.433	69.0
12.933	53.033	77.0
12.933	53.033	72.6
12.933	53.033	64.5
12.933	53.033	69.9
12.958	47.525	70.0
12.958	47.525	81.0
12.958	47.525	79.0
12.967	37.283	149.0
13.0	36.617	141.0
13.001	54.307	74.2
13.001	54.307	78.5
13.033	36.75	77.0
13.033	37.183	54.0
13.1	36.967	56.0
13.1	64.6	50.0
13.1	64.6	51.0
13.15	47.033	75.0
13.182	37.032	65.0
13.183	36.733	48.0
13.233	36.617	24.0
13.267	36.8	59.0
13.277	47.803	70.0
13.317	50.867	85.0
13.317	54.383	70.2
13.317	54.383	70.7
13.332	46.712	45.0
13.342	50.908	71.0
13.35	36.633	53.0
13.363	46.703	36.0
13.383	36.7	63.0
13.387	47.755	53.0
13.392	47.808	41.0
13.395	50.267	54.0
13.398	48.855	76.0
13.4	-11.918	42.0
13.417	36.967	44.0
13.443	50.285	53.0
13.5	36.633	63.0
13.527	47.817	70.0
13.533	49.483	72.0
13.54	47.853	66.0
13.542	46.808	49.0
13.555	47.898	77.0
13.567	47.925	77.0
13.58	50.337	90.0
13.582	46.797	45.0
13.583	36.867	54.0
13.6	52.9	61.7
13.6	52.9	79.3
13.628	46.755	45.0
13.642	50.983	25.0
13.657	47.592	46.0
13.662	47.58	48.0
13.683	50.583	98.0
13.708	50.767	92.0
13.765	50.717	68.0
13.765	50.727	77.0
13.767	50.733	84.0
13.787	47.642	33.0
13.8	36.8	38.0
13.8	52.933	68.3
13.802	47.872	104.0
13.809	75.427	84.0
13.828	50.64	86.0
13.917	53.517	51.1
13.917	53.517	76.4
13.932	47.658	52.0
13.95	50.628	68.0
13.957	50.415	52.0
13.982	50.328	74.0
13.997	49.687	57.0
14.017	49.65	62.0
14.05	49.717	48.0
14.067	50.25	59.0
14.078	46.62	53.0
14.085	50.223	63.0
14.087	49.653	31.0
14.09	50.255	62.0
14.095	50.277	62.0
14.1	50.25	81.0
14.1	50.267	55.0
14.13	50.275	62.0
14.133	50.267	60.0
14.14	46.627	57.0
14.148	50.257	62.0
14.15	50.487	80.0
14.15	59.833	54.0
14.172	50.615	72.0
14.2	50.683	61.0
14.22	46.617	62.0
14.243	65.877	49.0
14.255	49.552	54.0
14.26	49.957	62.0
14.317	50.733	60.0
14.318	48.895	47.0
14.365	50.415	70.0
14.425	46.79	75.0
14.45	53.917	69.0
14.5	53.683	73.0
14.517	50.337	60.0
14.548	50.36	63.0
14.548	50.385	79.0
14.578	50.36	81.0
14.583	46.603	70.0
14.583	50.867	58.0
14.653	50.425	72.0
14.712	50.272	96.0
14.717	52.45	81.0
14.795	49.385	47.0
14.807	50.293	80.0
14.828	49.558	56.0
14.857	50.572	63.0
14.912	50.317	67.0
15.0	67.383	33.0
15.045	37.903	33.0
15.047	59.888	64.0
15.05	60.117	61.0
15.073	37.527	34.0
15.083	58.8	57.0
15.085	59.702	61.0
15.093	59.795	51.0
15.1	59.75	63.0
15.113	50.088	62.0
15.138	59.922	66.0
15.142	59.887	59.0
15.207	59.75	61.0
15.222	37.802	46.0
15.303	59.898	60.0
15.4	50.567	79.0
15.412	50.267	62.0
15.422	50.558	81.0
15.457	59.787	62.0
15.47	50.318	63.0
15.473	59.745	46.0
15.518	72.415	84.0
15.533	67.102	49.0
15.613	41.65	114.0
15.618	59.862	75.0
15.667	50.517	70.0
15.667	54.117	65.0
15.732	41.605	143.0
15.733	49.537	43.0
15.757	41.582	121.0
15.765	60.02	57.0
15.767	54.183	52.0
16.048	40.803	50.0
16.05	58.267	63.0
16.055	50.542	67.0
16.063	50.54	60.0
16.083	53.75	51.0
16.088	50.527	64.0
16.093	50.168	96.0
16.13	50.5	64.0
16.13	50.508	69.0
16.148	50.51	61.0
16.15	60.333	44.0
16.183	51.817	72.0
16.198	49.45	41.0
16.2	49.467	31.0
16.278	40.788	92.0
16.297	40.762	80.0
16.3	49.4	24.0
16.383	40.698	42.0
16.397	39.61	49.0
16.467	78.18	69.0
16.482	40.527	38.0
16.507	40.368	17.0
16.567	57.583	95.0
16.598	48.807	42.0
16.61	40.538	71.0
16.612	48.892	49.0
16.622	38.873	44.0
16.678	48.968	60.0
16.717	50.083	49.0
16.732	49.022	44.0
16.742	49.093	54.0
16.75	46.767	84.0
16.767	48.995	51.0
16.768	48.987	64.0
16.863	49.16	55.0
16.907	48.925	63.0
16.943	49.072	45.0
16.963	49.052	46.0
16.972	48.785	53.0
16.982	48.645	47.0
16.987	48.382	62.0
16.993	49.145	58.0
17.005	48.392	56.0
17.02	48.447	44.0
17.047	39.04	36.0
17.118	48.558	41.0
17.145	49.042	42.0
17.152	48.658	45.0
17.173	48.477	49.0
17.185	48.562	54.0
17.2	48.567	64.0
17.213	42.537	50.0
17.253	65.168	57.0
17.253	65.168	60.0
17.33	49.205	63.0
17.33	49.272	51.0
17.372	49.18	76.0
17.383	49.818	55.0
17.387	49.218	54.0
17.4	50.183	38.0
17.408	50.192	34.0
17.417	54.717	45.0
17.683	47.917	79.0
17.688	49.34	65.0
17.693	-29.532	61.0
17.767	-29.567	60.0
17.85	60.033	60.0
17.867	49.2	71.0
17.883	-28.695	59.1
17.883	49.567	71.0
17.908	-29.533	76.0
17.95	49.383	85.0
17.967	-29.667	59.0
17.967	-29.64	60.0
18.01	-29.537	65.0
18.052	49.218	75.0
18.057	41.1	36.0
18.067	46.117	103.0
18.083	54.783	47.0
18.092	48.855	80.0
18.117	46.1	108.0
18.14	49.525	82.0
18.175	49.523	90.0
18.188	49.528	71.0
18.19	49.503	89.0
18.2	49.51	82.0
18.208	49.517	84.0
18.223	49.523	124.0
18.233	46.167	138.0
18.235	49.507	104.0
18.235	49.532	76.0
18.237	0.042	45.0
18.24	49.55	75.0
18.248	49.568	73.0
18.253	49.602	86.0
18.255	49.513	86.0
18.257	49.528	83.0
18.275	49.547	77.0
18.282	49.595	78.0
18.285	49.535	91.0
18.287	49.565	112.0
18.305	49.543	80.0
18.31	49.527	120.0
18.33	49.573	87.0
18.34	49.508	83.0
18.35	52.633	85.0
18.367	46.167	104.0
18.382	49.558	92.0
18.425	49.46	76.0
18.45	52.733	91.0
18.518	49.532	60.0
18.528	49.807	91.0
18.55	65.067	34.0
18.633	65.367	40.0
18.642	67.92	31.0
18.667	47.367	108.0
18.678	48.29	76.0
18.683	48.433	85.0
18.685	48.665	74.0
18.69	48.385	98.0
18.708	41.35	104.0
18.733	41.1	84.0
18.745	-29.22	55.0
18.778	48.418	96.0
18.778	48.423	105.0
18.78	48.422	100.0
18.782	48.427	103.0
18.823	40.522	48.0
18.833	53.433	42.0
18.92	48.488	108.0
18.92	48.73	83.0
19.005	66.738	48.0
19.005	66.738	42.0
19.033	48.7	80.0
19.033	52.017	69.0
19.083	47.683	84.0
19.12	40.047	44.0
19.133	49.717	42.0
19.133	50.267	54.0
19.217	47.817	84.0
19.217	53.783	41.0
19.35	41.317	38.0
19.4	40.533	29.0
19.4	40.7	15.0
19.4	40.7	28.0
19.433	40.833	31.0
19.467	42.033	6.0
19.517	41.15	32.0
19.533	40.633	35.0
19.533	41.117	32.0
19.55	40.45	8.5
19.55	40.45	13.0
19.55	40.45	21.0
19.55	41.067	24.0
19.567	49.033	52.0
19.6	40.95	38.0
19.6	40.967	34.0
19.6	65.017	40.0
19.617	40.967	36.5
19.633	40.8	32.0
19.633	40.8	28.0
19.633	67.6	42.0
19.642	-29.342	74.0
19.65	40.433	28.0
19.65	40.767	32.0
19.667	40.533	30.0
19.667	40.717	32.0
19.667	40.75	40.0
19.683	41.5	27.0
19.7	40.4	23.0
19.7	40.867	34.0
19.717	40.583	32.0
19.733	40.55	31.0
19.733	40.583	31.0
19.75	40.35	28.0
19.75	40.4	32.0
19.75	40.4	23.0
19.75	40.4	29.0
19.75	42.567	8.4
19.767	41.767	29.0
19.767	42.083	19.5
19.8	40.567	28.0
19.8	40.983	30.0
19.883	41.333	21.0
19.9	39.983	28.0
19.983	40.817	36.0
20.0	40.783	28.0
20.0	40.883	56.0
20.0	41.033	56.0
20.0	41.717	28.0
20.0	53.867	40.0
20.0	54.917	51.0
20.05	39.9	32.0
20.05	39.917	6.0
20.05	39.917	44.0
20.067	39.7	35.0
20.067	39.883	4.5
20.083	40.35	21.0
20.1	39.883	25.0
20.1	64.917	40.0
20.117	40.133	-3.0
20.118	-29.325	60.0
20.132	67.862	45.0
20.133	-2.537	40.0
20.133	39.933	7.0
20.133	39.933	23.0
20.133	40.95	27.0
20.148	67.868	48.0
20.15	40.533	33.0
20.157	67.87	48.0
20.167	39.817	2.0
20.2	40.15	3.0
20.217	41.45	34.2
20.217	54.717	65.0
20.237	67.857	44.0
20.25	42.05	67.0
20.267	41.333	20.0
20.267	53.367	35.0
20.267	67.883	54.0
20.283	48.317	60.0
20.322	65.855	42.0
20.333	54.6	60.0
20.34	65.857	34.0
20.365	65.862	37.0
20.383	50.017	60.0
20.433	46.367	82.0
20.433	65.882	41.0
20.45	52.583	41.0
20.45	64.867	41.0
20.478	65.867	41.0
20.483	42.217	45.0
20.517	42.117	13.0
20.57	48.892	67.0
20.617	40.5	93.5
20.672	67.165	44.0
20.675	67.168	48.0
20.708	67.175	43.0
20.717	54.667	62.0
20.767	46.45	106.0
20.767	48.3	131.0
20.767	65.592	40.0
20.79	-29.062	81.0
20.833	54.633	57.0
20.867	49.767	65.0
20.892	45.923	65.0
20.892	45.925	64.0
20.908	48.892	51.0
20.933	54.667	55.0
20.943	67.085	42.0
20.943	67.087	48.0
20.952	67.085	49.0
20.953	67.085	43.0
20.965	46.01	65.0
20.983	67.083	45.0
21.042	-28.285	52.0
21.05	54.75	54.0
21.067	51.783	42.0
21.083	53.55	28.0
21.2	57.017	28.0
21.333	-32.983	66.0
21.333	-32.683	60.0
21.367	47.533	108.0
21.417	47.5	97.0
21.5	-30.5	64.0
21.5	54.167	24.0
21.583	51.867	33.0
21.633	51.267	37.0
21.653	-29.018	39.0
21.683	47.283	102.0
21.7	57.617	19.0
21.73	48.373	94.0
21.75	56.467	38.0
21.75	61.45	50.0
21.787	-29.327	60.0
21.808	47.118	61.0
21.808	47.12	70.0
21.917	58.35	42.0
22.047	48.617	113.0
22.058	48.602	113.0
22.07	48.492	103.0
22.133	52.5	41.0
22.178	48.887	73.0
22.2	48.6	89.0
22.267	48.45	105.0
22.3	-29.962	48.0
22.3	48.55	88.0
22.3	48.567	92.0
22.3	52.9	38.0
22.3	56.433	36.0
22.317	64.183	34.0
22.317	64.183	35.0
22.317	64.183	45.0
22.317	64.183	39.0
22.383	56.683	31.0
22.417	61.45	44.0
22.45	56.817	28.0
22.483	48.333	85.0
22.483	48.333	92.0
22.483	48.417	88.0
22.5	48.25	125.0
22.5	49.267	43.0
22.517	48.25	96.0
22.517	48.25	96.0
22.517	48.25	92.0
22.517	48.25	96.0
22.517	48.25	80.0
22.517	48.25	88.0
22.517	48.25	85.0
22.533	48.133	73.0
22.533	48.5	104.0
22.55	48.183	84.0
22.55	48.917	61.0
22.55	49.683	27.0
22.583	-32.767	56.0
22.583	48.133	92.0
22.6	48.167	80.0
22.617	48.217	121.0
22.617	48.217	114.0
22.617	48.217	106.0
22.617	48.217	108.0
22.617	48.217	115.0
22.617	48.233	115.0
22.617	48.233	100.0
22.617	48.233	105.0
22.617	48.317	84.0
22.617	48.317	81.0
22.65	51.817	21.0
22.667	48.333	69.0
22.683	61.65	38.0
22.683	61.65	48.0
22.683	61.65	42.0
22.683	61.65	43.0
22.683	61.65	49.0
22.683	61.65	47.0
22.683	61.65	45.0
22.683	61.65	52.0
22.683	61.65	54.0
22.7	48.217	92.0
22.7	48.4	105.0
22.7	48.417	105.0
22.7	48.433	103.0
22.717	48.317	95.0
22.733	57.467	41.0
22.8	48.133	84.0
22.8	54.833	54.0
22.833	49.217	57.0
22.85	54.233	36.0
22.883	-27.7	48.0
22.9	48.133	84.0
22.95	-27.85	52.0
22.967	48.667	75.0
22.967	54.25	35.0
22.983	49.533	50.0
22.983	49.783	45.0
23.0	48.583	86.0
23.0	48.583	72.0
23.05	51.35	75.0
23.067	48.283	88.0
23.067	49.4	55.0
23.067	49.433	58.0
23.067	49.433	52.0
23.067	51.05	54.0
23.117	55.2	53.0
23.133	49.633	50.0
23.133	49.633	54.0
23.133	49.633	41.0
23.133	49.633	44.0
23.233	56.817	57.0
23.243	45.012	26.0
23.25	49.383	62.0
23.25	49.6	50.0
23.25	49.6	45.0
23.25	49.6	40.0
23.25	49.983	72.0
23.25	49.983	67.0
23.25	49.983	69.0
23.283	48.067	92.0
23.283	48.067	92.0
23.3	44.87	44.0
23.3	50.05	71.0
23.317	50.1	69.0
23.317	50.1	80.0
23.333	52.217	55.0
23.367	48.05	79.0
23.383	48.067	79.0
23.383	49.567	47.0
23.398	44.892	43.0
23.4	49.567	42.0
23.417	44.9	42.0
23.433	56.917	46.0
23.467	49.817	64.0
23.467	49.817	65.0
23.483	49.55	31.0
23.515	44.792	48.0
23.517	60.233	60.0
23.517	60.233	76.0
23.55	49.067	68.0
23.555	45.023	49.0
23.56	47.887	132.0
23.567	52.133	51.0
23.583	50.417	57.0
23.585	47.983	103.0
23.633	49.55	65.0
23.65	49.633	66.0
23.65	49.633	66.0
23.667	49.217	33.0
23.667	49.217	38.0
23.667	49.217	34.0
23.67	40.965	98.0
23.707	47.838	127.0
23.717	40.993	69.0
23.717	49.183	42.0
23.732	44.97	39.0
23.733	56.383	69.0
23.75	44.66	40.0
23.75	44.905	32.0
23.75	49.4	46.0
23.757	47.675	123.0
23.783	52.05	49.0
23.783	52.067	45.0
23.783	53.333	35.0
23.783	56.867	45.0
23.8	49.1	47.0
23.817	49.4	55.0
23.828	37.1	114.0
23.828	44.257	40.0
23.833	49.417	59.0
23.85	49.2	40.0
23.873	44.293	44.0
23.917	47.645	119.0
23.917	49.133	35.0
23.933	67.55	36.0
23.933	67.55	24.0
23.933	67.55	43.0
23.933	67.55	32.0
23.933	67.55	23.0
23.933	67.55	21.0
23.933	67.55	31.0
23.95	49.3	43.0
23.95	50.267	48.0
23.95	50.267	50.0
23.98	47.612	78.0
23.98	47.613	72.0
23.983	49.067	50.0
23.983	49.067	46.0
23.983	49.067	50.0
23.983	49.283	47.0
23.983	49.367	54.0
23.983	49.4	50.0
24.0	49.383	49.0
24.0	50.067	50.0
24.0	50.067	50.0
24.01	48.017	104.0
24.05	48.95	50.0
24.067	48.95	42.0
24.083	50.317	56.0
24.083	60.267	38.0
24.103	44.71	38.0
24.117	49.9	46.0
24.133	50.3	49.0
24.167	50.15	53.0
24.167	50.25	50.0
24.167	50.25	54.0
24.167	50.25	48.0
24.167	50.333	49.0
24.167	50.333	54.0
24.172	46.108	41.0
24.172	47.062	33.0
24.183	48.867	54.0
24.25	50.133	54.0
24.25	50.5	48.0
24.267	50.117	50.0
24.267	50.15	52.0
24.297	46.777	30.0
24.3	54.05	43.0
24.333	48.717	54.0
24.35	-32.717	55.0
24.35	48.767	54.0
24.35	48.9	45.0
24.35	50.15	54.0
24.367	56.7	36.0
24.383	49.1	46.0
24.467	50.317	41.0
24.467	53.3	41.0
24.467	53.517	45.0
24.483	52.817	31.0
24.487	46.857	33.0
24.507	47.125	58.0
24.55	50.883	39.0
24.567	49.583	49.0
24.567	49.833	48.0
24.572	40.337	65.0
24.582	46.222	26.0
24.583	48.683	42.0
24.6	56.733	33.0
24.617	48.45	65.0
24.633	46.483	31.0
24.633	48.45	50.0
24.633	53.383	48.0
24.633	53.483	45.0
24.65	-30.083	70.0
24.652	44.703	40.0
24.653	46.262	30.0
24.655	44.85	29.0
24.667	-30.083	69.0
24.687	40.225	69.0
24.697	45.0	34.0
24.715	73.55	60.0
24.747	44.83	48.0
24.748	72.717	43.0
24.76	44.83	42.0
24.802	73.225	79.0
24.833	60.183	48.0
24.842	46.42	50.0
24.88	46.682	33.0
24.908	46.563	39.0
24.91	46.0	46.0
24.912	46.0	46.0
24.95	56.533	59.0
25.05	49.1	51.0
25.05	63.85	34.0
25.083	52.517	29.0
25.083	64.383	30.0
25.083	64.383	35.0
25.083	64.383	30.0
25.083	64.383	33.0
25.083	64.383	33.0
25.083	64.383	29.0
25.1	48.217	41.0
25.133	-16.867	67.0
25.15	52.183	29.0
25.167	57.2	53.0
25.188	44.477	35.0
25.217	53.367	38.0
25.283	55.283	44.0
25.3	48.533	34.0
25.3	48.533	33.0
25.302	44.505	37.0
25.328	44.475	33.0
25.383	48.917	51.0
25.388	44.43	30.0
25.427	46.395	113.0
25.433	64.85	44.0
25.453	38.413	109.0
25.453	38.938	75.0
25.467	53.7	39.0
25.483	48.017	53.0
25.49	35.518	9.0
25.492	35.493	21.0
25.5	48.017	51.0
25.503	46.598	77.0
25.523	46.353	104.0
25.533	50.4	36.0
25.55	48.05	50.0
25.555	35.418	63.0
25.567	51.117	34.0
25.57	35.425	62.0
25.577	44.405	54.0
25.6	35.437	21.0
25.645	35.43	46.0
25.647	44.312	75.0
25.648	44.297	67.0
25.655	35.432	23.0
25.655	35.523	58.0
25.657	35.51	14.0
25.657	35.513	9.0
25.657	35.513	42.0
25.657	35.522	54.0
25.658	35.457	37.0
25.658	35.46	46.0
25.658	35.463	50.0
25.658	35.465	46.0
25.658	35.475	50.0
25.658	35.487	18.0
25.66	35.418	35.0
25.66	35.422	32.0
25.66	35.438	36.0
25.66	35.442	16.0
25.662	35.407	73.0
25.662	35.412	33.0
25.662	35.498	35.0
25.667	53.65	33.0
25.668	35.435	19.0
25.677	35.437	22.0
25.677	35.498	31.0
25.683	52.533	30.0
25.683	53.683	31.0
25.685	35.438	30.0
25.687	35.498	32.0
25.693	47.257	45.0
25.697	35.508	33.0
25.703	35.508	29.0
25.715	44.305	75.0
25.727	46.307	73.0
25.733	51.517	27.0
25.773	71.96	85.0
25.788	46.662	57.0
25.817	-12.233	62.0
25.84	35.487	41.0
25.845	35.447	42.0
25.848	35.458	9.0
25.85	-12.25	57.0
25.852	35.478	68.0
25.853	35.453	24.0
25.858	35.458	28.0
25.86	35.472	33.0
25.86	46.145	118.0
25.863	35.462	35.0
25.868	35.475	63.0
25.883	-12.283	55.0
25.887	44.285	48.0
25.95	-12.167	54.0
25.967	51.333	25.0
26.083	63.667	28.0
26.083	63.667	28.0
26.083	63.667	37.0
26.083	63.667	41.0
26.083	63.667	43.0
26.083	63.667	44.0
26.083	63.667	41.0
26.083	63.667	39.0
26.1	52.9	26.0
26.133	53.5	32.0
26.133	56.417	57.0
26.167	66.1	20.0
26.167	66.1	30.0
26.167	66.1	26.0
26.233	53.467	22.0
26.25	67.633	3.0
26.25	67.633	12.0
26.25	67.633	18.0
26.25	67.633	18.0
26.267	54.117	21.0
26.283	54.55	26.0
26.293	73.99	69.0
26.3	56.783	30.0
26.333	53.25	22.0
26.35	53.583	30.0
26.35	53.583	17.0
26.367	63.283	33.0
26.367	63.283	47.0
26.367	63.283	40.0
26.367	63.283	42.0
26.383	49.033	36.0
26.4	-27.3	40.0
26.417	-18.383	11.0
26.417	49.583	34.0
26.438	71.423	127.0
26.45	-26.838	34.0
26.46	-26.83	31.0
26.467	-28.7	58.0
26.467	53.5	25.0
26.483	60.617	34.0
26.493	-26.81	33.0
26.538	-26.748	36.0
26.553	-27.66	48.0
26.562	-26.7	33.0
26.568	-27.122	41.0
26.57	-27.15	40.0
26.573	-26.093	52.0
26.583	53.283	24.0
26.583	62.033	61.0
26.583	62.033	28.0
26.583	62.033	25.0
26.6	53.367	29.0
26.6	53.367	27.0
26.6	53.367	28.0
26.612	-27.715	50.0
26.62	-26.91	36.0
26.623	-26.605	33.0
26.667	63.2	34.0
26.695	-28.03	59.0
26.71	41.02	62.0
26.733	55.117	31.0
26.767	-27.952	47.0
26.767	53.467	27.0
26.767	60.467	67.0
26.767	60.467	55.0
26.767	60.467	43.0
26.787	-26.877	44.0
26.797	-26.842	54.0
26.798	-26.907	60.0
26.803	-26.822	48.0
26.813	-26.937	50.0
26.813	-26.91	53.0
26.813	-26.88	72.0
26.815	-26.855	56.0
26.817	-26.892	66.0
26.82	-26.923	50.0
26.828	-26.908	49.0
26.832	-26.868	59.0
26.832	-26.8	56.0
26.833	-30.9	49.0
26.843	-26.772	61.0
26.852	-26.837	58.0
26.862	-26.452	33.0
26.9	64.133	32.0
26.98	41.225	47.0
26.983	-26.567	50.0
27.05	53.467	16.0
27.1	64.117	32.0
27.167	55.133	37.0
27.185	73.942	69.0
27.195	-26.472	44.0
27.215	-26.485	54.0
27.232	41.118	33.0
27.25	-25.667	46.0
27.367	52.217	21.0
27.417	52.85	35.0
27.443	39.49	96.0
27.45	52.217	22.0
27.45	53.7	26.0
27.483	39.197	55.0
27.487	40.548	84.0
27.497	-27.41	46.0
27.5	53.917	28.0
27.545	41.11	43.0
27.567	62.067	27.0
27.573	-26.392	50.0
27.617	62.567	37.0
27.65	54.05	26.0
27.662	41.265	57.0
27.67	-26.3	51.0
27.717	52.2	42.0
27.733	63.117	22.0
27.75	52.233	47.0
27.75	52.25	52.0
27.767	-26.25	44.0
27.767	52.233	56.0
27.817	-26.233	36.0
27.817	-26.2	48.0
27.83	40.26	102.0
27.833	52.217	36.0
27.875	41.1	62.0
27.9	39.472	166.0
27.917	-15.817	71.0
27.937	41.258	33.0
27.943	39.513	95.0
27.95	53.883	22.0
28.008	73.955	64.0
28.05	-13.083	65.0
28.05	51.2	30.0
28.083	51.25	20.0
28.117	-12.733	74.0
28.117	52.817	39.0
28.133	-15.917	64.0
28.15	51.283	30.0
28.212	42.437	46.0
28.233	45.733	51.0
28.238	42.245	36.0
28.25	47.333	57.0
28.25	47.333	57.0
28.297	39.482	75.0
28.3	-26.3	43.0
28.317	-13.083	76.0
28.333	47.3	51.0
28.35	45.933	46.0
28.383	45.4	61.0
28.417	-28.473	36.7
28.417	42.667	41.0
28.418	-28.478	46.6
28.427	-28.492	67.1
28.432	-28.505	51.2
28.437	-28.583	48.0
28.438	-28.632	38.9
28.447	-28.925	95.0
28.45	45.95	45.0
28.455	-28.705	44.9
28.455	-28.705	51.9
28.467	42.683	45.0
28.467	51.3	12.0
28.47	40.048	113.0
28.473	-28.817	56.7
28.473	42.94	28.0
28.478	-29.142	78.8
28.478	-28.85	85.6
28.48	-29.17	76.6
28.482	42.605	49.0
28.483	42.583	69.0
28.5	39.607	39.0
28.5	53.55	22.0
28.515	41.035	50.0
28.517	42.783	45.0
28.533	42.95	17.0
28.533	43.267	200.0
28.542	43.113	63.0
28.55	-15.217	66.0
28.583	42.683	51.0
28.6	42.233	44.0
28.6	42.783	41.0
28.617	52.733	71.0
28.633	42.867	32.0
28.633	46.1	45.0
28.667	43.05	45.0
28.683	42.25	51.0
28.683	43.117	19.0
28.683	52.817	71.0
28.698	41.2	60.0
28.7	-28.3	54.0
28.7	62.95	31.0
28.717	46.717	52.0
28.75	43.117	67.0
28.767	43.133	38.0
28.767	46.85	56.0
28.783	43.1	70.0
28.8	43.083	80.0
28.8	45.333	54.0
28.817	60.683	19.0
28.863	74.023	61.0
28.898	-26.37	52.0
28.928	42.788	36.0
28.95	62.017	25.0
28.95	62.017	26.0
28.95	62.017	29.0
28.95	62.017	39.0
28.95	62.017	41.0
28.95	62.017	48.0
28.962	40.252	88.0
28.967	43.15	42.0
28.978	-26.395	60.0
28.992	-1.942	16.0
28.992	-1.942	18.0
29.0	43.41	67.0
29.0	49.3	37.0
29.0	49.3	35.0
29.017	52.683	75.0
29.017	62.717	33.0
29.02	-1.763	99.0
29.022	-1.993	41.0
29.033	48.35	30.0
29.033	50.433	24.0
29.05	49.217	39.0
29.05	49.217	39.0
29.05	49.733	22.0
29.05	50.5	37.0
29.065	43.213	43.0
29.065	62.717	28.6
29.065	62.717	31.6
29.065	62.717	31.2
29.065	62.717	31.9
29.065	62.717	30.4
29.065	62.717	32.8
29.065	62.717	32.4
29.065	62.717	31.3
29.065	62.717	32.1
29.065	62.717	35.5
29.065	62.717	35.4
29.065	62.717	34.3
29.065	62.717	37.3
29.065	62.717	40.3
29.065	62.717	36.2
29.065	62.717	43.7
29.065	62.717	38.7
29.065	62.717	40.3
29.065	62.717	44.3
29.065	62.717	43.8
29.065	62.717	46.1
29.065	62.717	50.0
29.065	62.717	40.3
29.065	62.717	41.7
29.065	62.717	41.0
29.067	43.217	33.0
29.075	-26.46	61.0
29.078	-26.473	55.0
29.078	41.03	37.0
29.092	-26.457	59.0
29.11	-26.455	63.0
29.113	-26.493	53.0
29.115	-26.432	53.0
29.117	43.25	34.0
29.117	43.267	10.0
29.133	52.633	71.0
29.147	-26.478	51.0
29.15	-2.137	182.0
29.15	-2.137	188.0
29.15	50.1	31.0
29.16	-26.492	48.0
29.167	49.65	30.0
29.182	-1.815	25.0
29.188	-26.522	44.0
29.2	-13.917	61.0
29.202	39.702	20.0
29.217	43.333	25.0
29.217	50.25	34.0
29.217	50.433	29.0
29.217	50.433	29.0
29.217	52.7	80.0
29.217	62.783	24.0
29.217	62.783	28.0
29.217	62.783	27.0
29.217	62.783	36.0
29.217	62.783	37.0
29.217	62.783	39.0
29.217	62.783	39.0
29.217	62.783	19.0
29.217	62.783	29.0
29.217	62.783	42.0
29.217	62.783	40.0
29.217	62.783	35.0
29.217	62.783	43.0
29.217	62.783	41.0
29.217	62.783	45.0
29.217	62.783	27.0
29.217	62.783	13.0
29.217	62.783	32.0
29.217	62.783	30.0
29.217	62.783	37.0
29.217	62.783	38.0
29.217	62.783	36.0
29.217	62.783	32.0
29.217	62.783	36.0
29.217	62.783	31.0
29.217	62.783	30.0
29.233	-19.683	40.0
29.233	43.35	30.0
29.25	49.45	27.0
29.25	49.45	25.0
29.25	52.5	63.0
29.258	-5.34	35.0
29.267	-30.167	54.0
29.267	-20.433	44.0
29.3	50.233	25.0
29.333	67.817	42.0
29.35	43.408	43.0
29.36	-5.3	67.0
29.36	43.533	19.0
29.383	-28.683	69.0
29.398	71.762	83.0
29.4	59.583	63.0
29.403	40.94	56.0
29.417	59.733	54.0
29.427	-5.742	47.0
29.427	-5.742	46.0
29.447	40.202	56.0
29.45	-5.967	149.0
29.45	-5.967	154.0
29.467	52.467	80.0
29.472	-5.543	42.0
29.472	-5.543	41.0
29.533	52.55	92.0
29.533	52.55	84.0
29.538	-5.923	58.0
29.538	-5.923	56.0
29.543	-6.447	18.0
29.543	-6.447	17.0
29.567	49.133	40.0
29.583	52.5	71.0
29.585	-5.77	41.0
29.585	-5.77	38.0
29.588	-6.39	21.0
29.588	-6.39	23.0
29.633	52.383	71.0
29.683	61.583	28.0
29.693	40.36	30.0
29.7	52.583	84.0
29.75	52.25	84.0
29.767	-18.5	34.0
29.8	43.6	19.0
29.833	58.733	57.0
29.9	-24.317	47.0
29.917	52.167	88.0
29.928	40.285	65.0
29.933	50.117	38.0
29.933	52.5	109.0
29.933	52.5	92.0
29.967	-6.855	56.0
29.967	-6.855	53.0
29.967	48.167	42.0
29.967	48.167	38.0
30.0	43.667	43.0
30.017	43.617	17.0
30.017	62.45	39.0
30.033	53.667	30.0
30.05	49.767	25.0
30.067	49.767	25.0
30.083	52.333	60.0
30.09	37.47	30.0
30.1	-22.3	57.0
30.1	43.55	29.0
30.1	48.067	33.0
30.1	59.283	76.0
30.117	69.05	41.0
30.117	69.05	37.0
30.117	69.05	39.0
30.117	69.25	36.0
30.117	69.25	42.0
30.117	69.25	34.0
30.117	69.25	32.0
30.12	69.25	37.0
30.183	-19.267	56.0
30.2	48.217	34.0
30.233	43.75	5.0
30.233	53.983	37.0
30.235	-7.217	41.0
30.235	-7.217	38.0
30.25	52.417	84.0
30.25	69.417	26.0
30.25	69.417	49.0
30.25	69.417	65.0
30.25	69.417	52.0
30.25	69.417	61.0
30.25	69.417	28.0
30.25	69.417	38.0
30.25	69.417	50.0
30.25	69.417	68.0
30.25	69.417	50.0
30.25	69.417	50.0
30.25	69.417	44.0
30.25	69.417	40.0
30.25	69.417	37.0
30.25	69.417	39.0
30.25	69.417	37.0
30.25	69.417	36.0
30.25	69.417	42.0
30.25	69.417	30.0
30.25	69.417	34.0
30.25	69.417	31.0
30.25	69.417	31.0
30.25	69.417	36.0
30.25	69.417	39.0
30.265	40.908	55.0
30.267	59.817	65.0
30.272	-7.22	36.0
30.272	-7.22	34.0
30.317	43.717	15.0
30.333	48.35	29.0
30.333	48.35	36.0
30.333	48.35	21.0
30.333	59.817	66.0
30.333	67.333	20.0
30.333	69.433	26.0
30.35	52.317	52.0
30.35	52.317	88.0
30.383	46.433	39.0
30.383	64.733	15.0
30.385	69.005	32.0
30.417	-18.1	38.0
30.417	-16.0	44.0
30.467	60.117	54.0
30.467	60.117	52.0
30.467	60.117	55.0
30.467	69.5	26.0
30.5	-5.617	109.0
30.5	69.5	31.0
30.567	-2.883	65.0
30.567	-2.883	72.0
30.591	69.408	36.0
30.614	69.401	44.0
30.616	69.413	41.0
30.617	52.183	80.0
30.62	69.402	38.0
30.625	69.395	35.0
30.628	69.399	37.0
30.642	69.407	41.0
30.643	69.404	38.0
30.643	69.404	40.0
30.646	69.407	39.0
30.646	69.414	36.0
30.651	69.407	35.0
30.651	69.412	33.0
30.652	69.407	39.0
30.656	69.413	34.0
30.66	69.403	42.0
30.661	69.396	38.0
30.667	52.333	71.0
30.682	73.63	79.0
30.683	69.398	43.0
30.733	69.417	51.0
30.745	40.588	72.0
30.75	62.867	31.0
30.767	43.883	29.0
30.817	44.033	13.0
30.833	69.417	37.0
30.833	69.417	38.0
30.833	69.417	34.0
30.833	69.417	35.0
30.85	-2.633	60.0
30.9	-3.55	74.0
30.9	44.117	47.0
30.9	49.05	26.0
31.05	49.2	30.0
31.067	44.183	14.0
31.067	48.017	36.0
31.083	-25.683	49.0
31.133	44.017	41.0
31.167	67.5	33.0
31.217	49.55	35.0
31.217	50.983	42.0
31.267	44.217	18.0
31.333	54.95	32.0
31.35	48.617	42.0
31.35	48.617	42.0
31.367	-13.3	73.0
31.417	44.467	28.0
31.485	44.683	33.0
31.55	50.983	42.0
31.55	56.45	44.0
31.583	-20.633	49.0
31.633	-12.417	77.0
31.667	55.5	35.0
31.683	61.467	27.0
31.717	50.4	42.0
31.733	48.633	36.0
31.733	48.633	36.0
31.733	48.633	31.0
31.733	48.633	33.0
31.8	39.32	62.1
31.85	50.867	40.0
31.867	51.267	34.0
31.883	51.05	45.0
31.917	50.6	42.0
31.917	54.783	33.0
31.933	44.667	68.0
32.0	45.667	58.0
32.0	45.667	54.0
32.0	51.45	41.0
32.0	51.45	46.0
32.017	50.533	52.0
32.017	51.267	34.0
32.05	-2.883	21.0
32.05	51.417	46.0
32.083	50.583	54.0
32.083	50.8	37.0
32.1	-28.35	68.0
32.133	50.85	43.0
32.133	50.85	36.0
32.133	51.033	56.0
32.183	48.85	38.0
32.183	50.717	46.0
32.217	48.7	39.0
32.217	51.317	44.0
32.263	73.128	68.0
32.283	48.567	38.0
32.283	48.567	40.0
32.283	48.567	38.0
32.283	48.567	40.0
32.283	48.567	42.0
32.29	41.53	70.4
32.333	31.737	24.0
32.333	46.1	48.0
32.35	34.9	11.0
32.368	71.967	56.0
32.383	35.117	29.0
32.39	40.64	116.64
32.417	50.817	46.0
32.433	35.0	12.0
32.45	35.0	22.0
32.467	35.033	45.0
32.467	51.317	34.0
32.483	50.383	50.0
32.5	50.367	50.0
32.517	50.717	60.0
32.533	45.467	71.0
32.533	45.467	64.0
32.533	45.467	64.0
32.567	34.833	19.0
32.567	34.9	23.0
32.567	50.533	48.0
32.58	29.6	65.0
32.583	-3.2	33.0
32.583	51.033	56.0
32.59	29.73	60.0
32.617	50.583	46.0
32.617	50.6	39.0
32.65	45.333	72.0
32.65	45.417	53.0
32.65	45.417	52.0
32.667	-18.883	62.0
32.667	45.417	67.0
32.683	48.733	44.0
32.683	50.417	50.0
32.702	33.797	8.0
32.733	45.567	62.0
32.733	51.117	47.0
32.747	72.302	66.0
32.75	40.96	57.72
32.767	-3.883	20.0
32.767	56.233	44.0
32.79	28.91	76.0
32.84	29.46	162.0
32.86	28.78	60.0
32.86	40.52	135.36
32.883	68.1	45.0
32.883	68.1	41.0
32.883	68.1	42.0
32.883	68.1	43.0
32.883	68.1	40.0
32.9	34.65	18.0
32.9	40.81	133.38
32.9	68.067	40.0
32.9	68.117	42.0
32.917	35.1	37.0
32.917	46.367	51.0
32.917	50.283	42.0
32.933	34.667	17.0
32.95	34.583	19.0
32.95	34.667	17.0
32.95	45.467	71.0
32.967	35.1	40.0
32.967	45.4	60.0
32.967	45.5	71.0
32.967	45.5	63.0
32.967	45.5	55.0
32.967	45.5	51.0
32.967	45.5	58.0
32.967	45.5	58.0
32.967	45.567	72.0
32.967	45.617	84.0
32.98	28.5	154.0
32.98	29.04	65.0
33.0	35.083	28.0
33.0	45.417	59.0
33.0	45.45	62.0
33.0	45.5	90.0
33.0	45.567	75.0
33.0	45.567	84.0
33.0	45.567	81.0
33.0	45.667	68.0
33.0	68.067	23.0
33.017	45.383	63.0
33.017	68.067	17.0
33.017	68.067	17.0
33.05	40.12	120.06
33.06	28.9	68.0
33.067	45.4	52.0
33.1	28.41	77.0
33.1	45.633	67.0
33.13	28.51	73.0
33.15	50.867	42.0
33.167	45.383	59.0
33.18	28.6	73.0
33.183	55.1	45.0
33.183	64.467	23.0
33.2	64.467	29.0
33.2	64.467	31.0
33.21	28.36	75.0
33.217	35.067	30.0
33.217	35.067	32.0
33.217	54.883	35.0
33.22	28.88	63.0
33.26	28.58	55.0
33.267	34.783	32.0
33.267	34.783	28.0
33.283	47.883	33.0
33.283	47.883	30.0
33.283	47.883	29.0
33.283	48.0	31.0
33.283	50.617	56.0
33.283	50.633	49.0
33.283	50.7	50.0
33.283	50.867	42.0
33.3	48.3	24.0
33.317	47.883	33.0
33.317	50.617	50.0
33.333	45.25	54.0
33.333	47.883	27.0
33.367	45.2	66.0
33.367	45.4	58.0
33.383	46.85	41.0
33.383	46.917	42.0
33.4	46.883	50.0
33.4	48.45	20.0
33.41	28.13	82.0
33.417	48.0	33.0
33.417	70.733	53.0
33.46	28.27	78.0
33.467	50.467	46.0
33.5	46.45	42.0
33.5	67.7	51.0
33.517	45.467	59.0
33.517	46.367	51.0
33.517	48.083	31.0
33.517	48.083	30.0
33.517	48.117	33.0
33.55	45.1	62.0
33.55	45.267	58.0
33.567	35.0	28.0
33.567	48.717	29.0
33.567	48.717	41.0
33.58	41.49	54.2
33.583	44.967	42.0
33.583	45.133	66.0
33.583	45.783	72.0
33.6	40.69	79.2
33.61	27.94	76.0
33.617	45.65	67.0
33.617	48.767	36.0
33.63	39.85	55.5
33.66	40.25	61.2
33.667	45.0	50.0
33.667	45.367	74.0
33.667	45.4	56.0
33.667	49.817	42.0
33.667	67.667	40.0
33.7	45.6	76.0
33.7	50.433	47.0
33.717	45.1	46.0
33.717	45.1	48.0
33.717	45.15	54.0
33.717	45.55	75.0
33.717	46.217	46.0
33.717	49.0	34.0
33.717	49.0	34.0
33.717	49.0	29.0
33.717	50.367	52.0
33.733	45.083	48.0
33.733	45.4	56.0
33.75	35.233	28.0
33.75	45.15	58.0
33.767	46.083	50.0
33.767	50.383	53.0
33.77	28.03	68.0
33.78	27.91	80.0
33.783	49.9	49.0
33.8	50.283	50.0
33.833	45.3	53.0
33.833	45.5	105.0
33.833	67.833	41.0
33.917	45.467	55.0
33.967	49.75	46.0
33.983	49.45	42.0
34.025	27.013	108.0
34.045	27.023	101.0
34.05	44.167	25.0
34.05	45.517	105.0
34.062	27.03	122.0
34.08	27.035	103.0
34.083	45.183	60.0
34.083	45.733	54.0
34.083	45.733	67.0
34.083	45.783	64.0
34.083	45.783	64.0
34.09	71.997	83.0
34.095	27.043	112.0
34.1	44.217	22.0
34.1	45.0	68.0
34.11	27.047	80.0
34.117	45.033	46.0
34.117	57.917	42.0
34.13	27.053	172.0
34.133	45.0	50.0
34.133	57.083	39.0
34.145	26.755	120.0
34.15	27.058	170.0
34.163	26.758	111.0
34.167	45.0	42.0
34.167	45.0	46.0
34.167	45.0	42.0
34.167	45.783	58.0
34.167	45.783	53.0
34.167	45.783	56.0
34.167	45.783	50.0
34.167	45.783	58.0
34.172	27.065	156.0
34.183	27.08	150.0
34.183	50.4	49.0
34.183	61.0	36.0
34.188	26.767	111.0
34.2	27.085	122.0
34.2	45.183	63.0
34.208	26.77	106.0
34.213	27.093	137.0
34.217	49.35	38.0
34.217	49.367	36.0
34.222	27.105	111.0
34.23	26.773	181.0
34.233	50.4	49.0
34.233	50.433	49.0
34.238	27.11	134.0
34.25	26.778	88.0
34.25	45.767	50.0
34.25	55.167	37.0
34.25	55.533	29.0
34.253	27.118	135.0
34.267	45.767	54.0
34.267	45.8	54.0
34.267	50.467	53.0
34.27	26.785	131.0
34.273	27.128	166.0
34.287	26.797	100.0
34.29	27.138	182.0
34.292	27.138	163.0
34.297	31.238	53.8
34.3	45.7	57.0
34.3	45.967	52.0
34.3	46.117	42.0
34.301	31.235	53.8
34.302	26.807	217.0
34.313	27.142	225.0
34.317	-11.283	13.0
34.317	-11.1	6.0
34.317	26.812	161.0
34.327	26.378	69.0
34.327	27.148	195.0
34.332	26.825	124.0
34.333	31.42	49.9
34.333	45.667	61.0
34.333	45.983	55.0
34.333	45.983	45.0
34.333	67.667	52.0
34.34	44.408	39.0
34.343	44.375	23.0
34.347	26.385	104.0
34.35	-10.5	18.0
34.353	26.838	121.0
34.362	26.852	124.0
34.363	26.397	122.0
34.366	31.359	48.1
34.366	31.453	45.1
34.367	-11.083	14.0
34.367	-4.417	47.0
34.38	26.858	122.0
34.383	-12.3	73.0
34.383	-9.917	8.0
34.383	45.267	54.0
34.385	26.405	172.0
34.394	31.044	43.7
34.397	26.865	159.0
34.4	-11.5	39.0
34.403	26.417	155.0
34.413	31.325	47.0
34.417	-10.25	17.0
34.42	31.268	47.5
34.42	41.37	74.25
34.422	26.878	192.0
34.423	26.423	148.0
34.432	31.521	42.1
34.433	-11.9	68.0
34.433	-11.1	12.0
34.433	-10.217	24.0
34.433	31.764	37.7
34.433	45.733	58.0
34.44	31.35	53.8
34.443	26.433	126.0
34.445	26.882	229.0
34.449	31.346	53.8
34.45	-11.067	46.0
34.45	45.2	55.0
34.452	31.496	42.1
34.454	31.458	53.5
34.463	26.438	132.0
34.467	45.483	69.0
34.469	31.428	53.5
34.47	26.89	217.0
34.47	31.527	42.1
34.477	26.45	145.0
34.482	31.426	53.5
34.483	-10.85	39.0
34.483	50.283	54.0
34.486	31.436	53.5
34.488	26.457	225.0
34.489	30.894	46.4
34.489	31.513	56.2
34.491	30.994	57.8
34.492	26.89	208.0
34.5	-11.75	101.0
34.5	68.167	25.0
34.503	26.462	212.0
34.505	31.438	64.0
34.513	26.9	179.0
34.517	46.017	51.0
34.517	49.917	40.0
34.517	49.917	40.0
34.519	31.419	42.1
34.522	31.619	41.3
34.523	26.467	133.0
34.528	31.475	45.4
34.532	31.388	42.1
34.532	31.485	85.0
34.533	-11.067	28.0
34.537	26.47	142.0
34.541	31.478	45.4
34.541	31.633	44.5
34.543	26.91	160.0
34.543	31.167	61.0
34.545	31.166	41.2
34.55	-12.25	121.0
34.55	49.633	37.0
34.55	50.283	46.0
34.55	50.283	50.0
34.554	31.651	44.5
34.557	31.68	44.5
34.558	31.638	44.0
34.559	31.634	44.5
34.562	31.388	46.6
34.564	31.458	42.3
34.567	-12.333	119.0
34.567	26.487	136.0
34.567	31.527	50.2
34.567	31.534	50.2
34.567	50.1	40.0
34.568	31.377	36.0
34.57	31.186	41.2
34.57	31.377	46.6
34.57	31.52	50.2
34.574	31.522	50.2
34.574	31.522	50.2
34.574	31.528	50.2
34.578	31.541	50.2
34.578	31.581	41.5
34.579	31.638	51.5
34.581	31.514	50.2
34.581	31.553	50.2
34.582	26.912	210.0
34.583	31.525	50.2
34.583	50.0	51.0
34.583	50.2	46.0
34.586	31.564	50.2
34.588	31.616	41.2
34.588	31.693	43.0
34.591	31.701	43.0
34.592	26.495	98.0
34.594	31.562	50.2
34.594	31.631	41.2
34.594	31.693	43.0
34.595	31.695	36.0
34.597	31.492	45.0
34.6	-12.583	28.0
34.6	49.2	36.0
34.604	31.574	46.2
34.605	31.568	55.6
34.607	26.927	167.0
34.608	31.566	55.6
34.609	31.61	41.2
34.611	31.567	55.6
34.611	31.571	55.6
34.615	31.51	43.7
34.616	31.563	55.6
34.617	31.566	55.6
34.617	45.767	60.0
34.619	31.575	55.6
34.62	31.607	46.2
34.621	31.565	55.6
34.621	31.569	55.6
34.624	31.57	55.6
34.624	31.588	46.2
34.625	26.507	205.0
34.625	31.58	46.2
34.626	31.575	55.6
34.627	31.585	46.2
34.629	31.589	46.2
34.629	31.595	46.2
34.63	31.794	55.1
34.631	31.579	46.2
34.631	31.6	46.2
34.633	31.584	46.2
34.633	46.3	42.0
34.634	31.589	46.2
34.635	26.947	190.0
34.635	31.594	46.2
34.636	31.612	46.2
34.636	31.633	54.4
34.637	31.598	46.2
34.638	31.591	46.2
34.638	31.604	46.2
34.638	31.624	46.2
34.64	31.588	46.2
34.64	31.614	46.2
34.641	31.594	46.2
34.641	31.619	46.2
34.642	31.585	46.2
34.642	31.598	46.2
34.642	31.623	46.2
34.643	31.667	45.7
34.644	31.603	46.2
34.644	31.608	46.2
34.644	31.639	54.4
34.644	31.644	54.4
34.646	31.61	46.2
34.646	31.628	46.2
34.646	31.649	54.4
34.646	31.658	54.4
34.647	31.592	46.2
34.647	31.636	54.4
34.649	31.597	46.2
34.649	31.676	47.2
34.649	31.792	42.0
34.65	-12.867	33.0
34.65	31.602	46.2
34.65	31.607	46.2
34.65	46.083	48.0
34.65	46.083	47.0
34.65	46.3	40.0
34.651	31.682	47.2
34.652	31.654	54.4
34.653	26.527	178.0
34.654	31.395	49.6
34.654	31.626	54.4
34.654	31.634	54.4
34.657	31.642	54.4
34.657	31.782	42.0
34.659	31.79	42.0
34.66	31.774	42.0
34.662	31.788	42.0
34.663	26.963	63.0
34.663	31.647	44.8
34.664	31.686	47.2
34.665	31.178	47.2
34.667	31.663	44.8
34.667	45.833	57.0
34.667	50.333	41.0
34.667	50.333	40.0
34.667	50.333	44.0
34.667	50.333	50.0
34.667	67.917	49.0
34.668	27.318	209.0
34.668	31.788	42.0
34.67	31.731	50.8
34.672	31.656	44.8
34.674	31.649	44.8
34.677	26.53	168.0
34.677	31.656	44.8
34.679	31.651	44.8
34.683	31.65	84.0
34.683	32.379	42.2
34.685	31.649	44.8
34.688	31.695	33.0
34.69	31.695	44.8
34.693	26.537	192.0
34.7	-5.667	42.0
34.7	50.2	39.0
34.7	50.2	39.0
34.707	31.783	44.8
34.712	31.791	44.8
34.713	30.874	43.0
34.714	31.79	44.8
34.717	-13.1	32.0
34.717	45.733	50.0
34.718	26.542	174.0
34.718	31.78	44.8
34.72	-0.48	3.0
34.72	27.335	262.0
34.722	31.794	44.8
34.735	27.345	296.0
34.736	31.632	49.0
34.738	26.552	175.0
34.74	31.55	31.0
34.741	30.936	51.1
34.741	30.936	54.4
34.741	30.936	51.8
34.741	30.936	48.0
34.741	30.936	48.9
34.741	30.936	52.2
34.747	31.804	37.8
34.75	45.433	54.0
34.75	45.433	54.0
34.75	45.433	70.0
34.75	45.683	55.0
34.75	45.683	57.0
34.75	46.317	42.0
34.755	27.348	270.0
34.757	26.56	140.0
34.76	32.062	40.2
34.765	30.793	33.0
34.766	30.699	48.5
34.767	30.778	54.0
34.767	31.74	45.0
34.774	31.234	49.7
34.775	26.567	167.0
34.775	27.353	248.0
34.783	46.183	49.0
34.783	50.2	29.0
34.788	27.365	235.0
34.792	26.577	192.0
34.805	31.6	49.7
34.805	31.6	51.3
34.805	31.6	48.1
34.807	26.587	201.0
34.812	27.372	174.0
34.822	32.385	42.6
34.824	32.226	46.2
34.825	26.602	194.0
34.826	32.225	46.2
34.826	32.226	46.2
34.828	27.39	201.0
34.833	31.38	57.0
34.833	45.917	57.0
34.833	45.917	47.0
34.834	31.381	36.0
34.84	26.605	210.0
34.845	27.402	305.0
34.85	49.483	46.0
34.851	31.406	36.0
34.858	26.608	155.0
34.858	30.125	52.0
34.859	30.128	61.5
34.86	27.078	191.0
34.861	31.045	52.5
34.861	31.706	35.7
34.862	31.517	18.0
34.864	32.094	49.2
34.865	27.405	216.0
34.865	30.956	40.1
34.866	30.956	40.1
34.878	32.1	49.2
34.879	30.594	60.3
34.882	26.61	256.0
34.882	27.412	194.0
34.883	-4.9	37.0
34.883	30.595	38.0
34.883	45.067	73.0
34.883	49.483	46.0
34.885	27.083	181.0
34.892	31.988	80.0
34.892	32.497	55.8
34.892	32.499	55.8
34.895	26.638	230.0
34.896	32.511	55.8
34.897	26.635	229.0
34.898	27.42	183.0
34.9	49.3	50.0
34.903	27.113	204.0
34.915	27.425	177.0
34.917	45.567	52.0
34.917	50.167	38.0
34.917	50.167	38.0
34.921	30.503	58.3
34.921	30.503	60.2
34.921	30.503	61.7
34.921	30.503	59.4
34.921	30.503	59.3
34.921	30.503	54.3
34.921	30.503	55.1
34.923	27.438	165.0
34.925	27.115	227.0
34.927	29.523	93.0
34.933	45.1	50.0
34.933	60.667	33.0
34.935	32.704	35.5
34.938	27.125	224.0
34.94	27.165	210.0
34.945	27.447	180.0
34.948	27.162	264.0
34.95	-5.833	32.0
34.95	45.883	50.0
34.954	32.569	58.4
34.96	27.453	171.0
34.96	29.583	56.0
34.972	29.627	41.0
34.972	31.92	39.0
34.978	27.46	128.0
34.98	27.152	236.0
34.983	29.627	32.0
34.983	29.755	45.0
34.987	30.939	51.5
34.988	72.487	64.0
34.995	27.155	266.0
35.0	45.35	55.0
35.0	45.5	54.0
35.008	29.78	47.0
35.013	27.47	197.0
35.015	27.465	179.0
35.015	31.247	43.0
35.017	27.16	183.0
35.017	45.05	34.0
35.017	45.05	45.0
35.025	30.953	63.0
35.03	-0.13	27.0
35.03	31.102	57.3
35.03	31.102	51.8
35.03	31.102	61.9
35.03	31.102	58.0
35.033	27.478	149.0
35.033	45.167	51.0
35.033	50.067	42.0
35.037	31.817	13.0
35.04	31.102	38.0
35.043	27.493	137.0
35.05	27.158	193.0
35.053	29.888	46.0
35.063	32.753	13.0
35.065	32.675	33.2
35.067	45.4	49.0
35.068	27.492	129.0
35.072	27.158	167.0
35.08	27.498	137.0
35.083	30.0	62.0
35.083	52.25	36.0
35.089	30.0	57.1
35.089	30.0	54.7
35.089	30.0	58.8
35.089	30.0	57.8
35.092	31.803	44.5
35.095	27.165	175.0
35.1	45.0	42.0
35.1	45.0	50.0
35.1	49.033	48.0
35.1	49.083	50.0
35.103	31.588	50.6
35.109	31.132	56.1
35.112	31.532	67.0
35.113	31.134	56.1
35.118	27.175	146.0
35.12	32.842	31.5
35.124	32.775	50.6
35.125	32.773	23.0
35.135	30.337	146.0
35.137	30.111	55.2
35.137	30.111	57.8
35.137	30.111	52.7
35.138	27.188	161.0
35.15	30.336	61.2
35.15	30.336	54.7
35.15	30.336	69.2
35.15	30.336	63.3
35.15	30.336	57.5
35.15	32.506	35.5
35.15	48.817	41.0
35.152	31.772	57.0
35.163	30.343	77.0
35.165	27.203	178.0
35.167	-4.383	46.0
35.167	44.917	40.0
35.167	52.25	41.0
35.167	52.333	38.0
35.173	30.347	66.0
35.174	31.956	50.0
35.182	30.967	34.0
35.183	31.249	53.5
35.183	31.249	53.6
35.183	31.249	52.5
35.183	31.249	54.3
35.193	27.208	149.0
35.195	26.755	215.0
35.196	31.321	48.1
35.197	31.323	68.0
35.198	30.957	40.9
35.198	30.962	54.0
35.199	30.963	40.9
35.212	26.758	218.0
35.212	27.218	121.0
35.215	30.978	463.0
35.217	0.7	74.0
35.217	0.7	64.0
35.217	0.7	68.0
35.217	32.615	31.0
35.22	31.219	44.1
35.22	33.072	71.0
35.222	31.22	44.1
35.23	31.204	44.1
35.232	26.768	209.0
35.232	27.213	114.0
35.243	30.653	45.0
35.247	27.24	144.0
35.248	26.775	222.0
35.249	32.623	42.8
35.25	32.622	46.0
35.25	44.9	50.0
35.25	44.9	54.0
35.252	31.201	47.0
35.252	31.209	47.0
35.254	31.13	55.1
35.254	31.13	57.6
35.254	31.13	52.5
35.254	31.206	47.0
35.256	31.208	47.0
35.257	32.613	46.0
35.258	31.872	23.0
35.259	30.829	54.3
35.259	30.829	54.1
35.259	30.829	54.5
35.262	32.102	7.0
35.267	0.483	45.0
35.267	0.483	42.0
35.267	26.783	153.0
35.267	62.367	15.0
35.27	-1.5	58.0
35.275	31.268	73.0
35.285	30.763	67.0
35.285	31.413	44.6
35.289	31.33	47.0
35.295	26.787	149.0
35.299	30.884	52.7
35.3	0.45	38.0
35.3	48.833	42.0
35.315	26.8	195.0
35.317	49.033	67.0
35.317	49.633	44.0
35.322	31.169	47.7
35.323	30.86	40.0
35.326	31.166	47.7
35.33	26.818	164.0
35.33	31.038	52.5
35.333	44.95	50.0
35.333	48.917	54.0
35.333	49.633	39.0
35.333	49.633	43.0
35.333	52.417	45.0
35.333	52.5	40.0
35.336	31.733	50.2
35.341	31.138	57.0
35.342	32.692	87.0
35.342	32.692	46.8
35.343	31.345	92.0
35.357	31.312	55.8
35.358	26.822	142.0
35.358	31.274	53.2
35.358	31.274	50.8
35.358	31.274	55.6
35.365	31.091	43.9
35.367	31.08	43.9
35.367	31.38	51.7
35.367	48.917	54.0
35.367	49.55	39.0
35.376	31.395	50.4
35.382	26.832	148.0
35.383	45.083	68.0
35.393	26.838	121.0
35.394	31.423	28.0
35.398	32.902	46.0
35.4	-1.1	25.0
35.4	32.902	47.0
35.4	49.383	46.0
35.41	26.843	114.0
35.428	26.852	111.0
35.43	33.027	45.0
35.433	48.933	52.0
35.437	31.8	59.0
35.447	26.858	100.0
35.45	45.1	34.0
35.454	31.909	47.5
35.457	31.768	73.0
35.457	31.863	24.0
35.467	26.865	119.0
35.47	0.18	22.0
35.471	31.508	27.0
35.482	26.878	158.0
35.482	26.887	293.0
35.483	0.683	53.0
35.483	0.683	47.0
35.502	26.887	146.0
35.517	26.888	210.0
35.52	32.592	48.2
35.533	26.893	165.0
35.545	26.902	126.0
35.55	45.067	54.0
35.55	45.067	54.0
35.55	45.117	54.0
35.567	33.007	22.0
35.567	45.283	42.0
35.57	37.07	35.0
35.572	26.91	96.0
35.575	32.962	44.3
35.577	26.912	90.0
35.577	32.975	37.0
35.578	32.962	46.0
35.588	26.928	122.0
35.597	31.628	159.8
35.597	31.628	56.8
35.597	31.628	91.8
35.597	31.628	197.7
35.597	32.69	57.5
35.61	31.6	164.9
35.612	33.113	37.4
35.612	33.122	37.4
35.617	48.9	50.0
35.617	49.467	50.0
35.622	31.6	195.5
35.624	33.11	37.4
35.626	33.12	37.4
35.633	31.602	155.5
35.648	31.602	114.2
35.65	45.133	71.0
35.65	48.867	44.0
35.667	46.55	40.0
35.667	48.667	42.0
35.667	48.667	41.0
35.667	48.783	40.0
35.695	32.714	85.0
35.696	32.743	85.0
35.7	49.45	39.0
35.717	48.817	44.0
35.733	48.767	38.0
35.75	-6.183	23.0
35.783	49.55	41.0
35.817	-0.233	77.0
35.817	-0.233	67.0
35.817	0.233	56.0
35.817	45.067	54.0
35.817	45.067	59.0
35.817	45.067	55.0
35.817	47.633	41.0
35.817	47.633	41.0
35.833	45.083	61.0
35.833	45.083	56.0
35.833	45.083	59.0
35.833	45.5	46.0
35.833	47.567	47.0
35.833	47.567	47.0
35.833	48.717	56.0
35.883	45.1	54.0
35.883	48.883	46.0
35.9	49.55	45.0
35.917	51.167	44.0
35.92	-0.3	56.0
35.93	-1.22	90.0
35.95	48.883	42.0
35.958	29.595	65.6
35.967	45.183	54.0
35.983	49.3	50.0
36.0	-0.283	234.0
36.0	-0.283	190.0
36.0	51.417	36.0
36.0	61.967	9.0
36.05	-1.1	68.0
36.067	-0.067	76.0
36.067	-0.067	55.0
36.067	62.083	13.0
36.085	29.415	55.8
36.085	29.415	55.5
36.117	-0.133	119.0
36.117	-0.133	103.0
36.117	45.467	71.0
36.133	-0.167	185.0
36.133	-0.167	194.0
36.133	45.217	78.0
36.133	45.217	61.0
36.143	29.493	55.9
36.143	29.493	67.0
36.143	29.493	49.4
36.15	45.217	59.0
36.167	51.0	45.0
36.167	51.0	47.0
36.183	0.117	118.0
36.183	0.117	81.0
36.192	29.427	54.4
36.192	29.427	67.2
36.192	29.427	49.7
36.2	36.2	73.4
36.233	48.4	56.0
36.25	29.552	68.2
36.25	29.552	65.4
36.25	29.552	65.7
36.25	29.552	68.2
36.25	29.552	61.2
36.25	49.55	42.0
36.25	50.25	53.0
36.25	51.333	37.0
36.267	0.8	115.0
36.267	0.8	87.0
36.267	0.8	101.0
36.28	-0.25	39.0
36.283	-5.217	41.0
36.283	-3.383	39.0
36.283	48.5	42.0
36.283	49.6	39.0
36.317	49.967	54.0
36.35	45.35	71.0
36.367	55.6	38.0
36.38	-0.27	64.0
36.383	49.367	44.0
36.467	-2.617	44.0
36.483	49.483	46.0
36.483	49.483	64.0
36.483	50.433	59.0
36.517	50.8	58.0
36.533	49.5	39.0
36.533	49.5	33.0
36.533	49.5	40.0
36.55	48.517	69.0
36.55	49.5	36.0
36.58	-1.9	27.0
36.58	1.8	51.0
36.6	-1.88	17.0
36.6	49.45	40.0
36.63	-1.12	4.0
36.65	49.783	38.0
36.667	48.317	54.0
36.667	50.583	55.0
36.67	-1.37	1.0
36.683	49.267	54.0
36.7	49.467	37.0
36.73	-1.8	35.0
36.8	49.3	50.0
36.817	0.2	45.0
36.817	0.2	33.0
36.82	-2.08	51.0
36.82	-2.08	35.0
36.833	49.467	40.0
36.833	50.75	46.0
36.833	50.75	62.0
36.85	-0.3	42.0
36.85	0.2	47.0
36.85	0.2	43.0
36.867	46.933	31.0
36.867	46.933	31.0
36.9	0.1	22.0
36.912	71.957	84.0
36.933	49.467	40.0
36.95	-1.47	26.0
36.967	49.467	43.0
37.033	49.5	40.0
37.05	0.667	35.0
37.067	49.367	46.0
37.07	22.037	120.0
37.083	21.133	89.0
37.1	49.183	47.0
37.133	49.183	44.0
37.133	49.183	47.0
37.133	49.55	46.0
37.167	49.6	54.0
37.167	50.833	38.0
37.167	50.833	33.0
37.22	-1.48	33.0
37.22	-1.32	11.0
37.228	71.573	56.0
37.25	47.333	53.0
37.27	-1.53	21.0
37.283	-5.4	50.0
37.283	20.817	100.0
37.283	21.05	100.0
37.333	47.967	62.0
37.333	50.5	43.0
37.383	49.5	56.0
37.4	49.467	54.0
37.417	45.083	48.0
37.5	51.583	33.0
37.517	49.417	50.0
37.583	50.5	39.0
37.633	-3.383	62.0
37.65	48.8	40.0
37.667	48.0	54.0
37.667	48.417	68.0
37.667	48.417	53.0
37.667	48.417	56.0
37.667	48.417	60.0
37.667	49.083	63.0
37.717	45.083	50.0
37.833	45.25	61.0
37.833	48.083	58.0
37.883	1.867	43.0
37.883	1.867	37.0
37.9	48.033	59.0
37.917	45.0	48.0
