lon	lat	heat-flow (mW/m2)
-114.68	34.68	95.0
-114.645	34.518	90.0
-114.616	38.083	78.0
-114.6	37.967	70.0
-114.6	38.1	71.0
-114.593	34.022	79.0
-114.56	35.22	120.0
-114.551	34.265	104.0
-114.55	41.772	58.6
-114.53	33.73	95.0
-114.47	33.425	91.0
-114.37	35.717	122.0
-114.36	34.68	95.0
-114.36	44.408	131.0
-114.34	44.49	83.2
-114.333	33.633	100.0
-114.33	33.657	95.0
-114.2	36.267	67.0
-114.168	34.352	69.0
-114.125	46.572	82.0
-114.07	35.128	100.0
-113.91	34.732	100.0
-113.82	35.133	97.0
-113.8	35.405	84.0
-113.8	39.81	82.0
-113.78	41.033	88.0
-113.75	32.732	70.0
-113.74	37.957	98.0
-113.73	39.5	88.0
-113.7	41.533	104.0
-113.7	42.278	78.4
-113.685	34.642	80.0
-113.683	34.642	77.0
-113.66	35.368	79.0
-113.65	33.747	80.0
-113.63	37.982	109.2
-113.61	42.388	70.0
-113.61	42.388	78.4
-113.523	37.69	35.0
-113.49	37.053	49.1
-113.48	37.023	50.2
-113.46	32.775	63.0
-113.45	37.038	43.4
-113.43	42.168	107.0
-113.42	46.45	83.0
-113.38	35.192	103.0
-113.366	41.217	71.0
-113.36	42.085	42.5
-113.36	42.133	131.0
-113.333	28.0	52.0
-113.31	37.093	41.6
-113.31	37.692	89.0
-113.3	38.49	66.9
-113.28	38.403	87.9
-113.26	34.462	83.0
-113.22	34.582	82.0
-113.22	38.397	87.9
-113.216	39.717	108.0
-113.216	39.717	121.0
-113.216	39.717	125.0
-113.216	39.717	133.0
-113.19	33.237	75.0
-113.19	34.592	65.0
-113.18	38.192	91.0
-113.13	38.483	91.0
-113.12	33.742	61.0
-113.11	38.483	87.9
-113.1	36.713	41.0
-113.08	38.13	113.7
-113.07	43.623	69.9
-113.07	43.623	63.1
-113.065	43.623	22.0
-113.02	39.382	135.0
-112.96	39.438	30.6
-112.95	38.475	113.0
-112.95	38.475	117.0
-112.94	38.608	117.2
-112.93	32.332	94.0
-112.92	38.902	105.0
-112.92	39.7	132.0
-112.91	34.505	81.0
-112.91	34.79	119.0
-112.91	38.533	68.9
-112.9	38.587	75.3
-112.9	38.643	113.0
-112.88	35.398	115.0
-112.876	45.31	61.0
-112.87	34.24	79.0
-112.853	38.765	104.0
-112.84	34.907	113.0
-112.84	38.312	33.5
-112.84	38.462	92.4
-112.83	33.87	58.0
-112.83	38.5	110.6
-112.82	38.735	60.2
-112.81	38.515	41.7
-112.805	38.738	98.0
-112.8	46.182	93.8
-112.8	46.182	61.6
-112.8	46.182	16.8
-112.798	38.725	142.0
-112.78	38.482	50.4
-112.78	38.572	75.3
-112.77	38.707	87.9
-112.77	38.708	95.0
-112.76	38.485	27.6
-112.753	38.74	86.0
-112.75	32.1	102.0
-112.75	38.74	96.2
-112.72	38.753	83.7
-112.688	43.765	110.0
-112.67	38.473	41.8
-112.66	32.155	83.0
-112.658	44.23	39.0
-112.65	33.192	101.0
-112.64	36.692	38.0
-112.64	36.692	39.0
-112.62	38.617	42.0
-112.61	33.312	31.0
-112.61	38.658	21.0
-112.6	39.733	93.0
-112.58	34.417	92.0
-112.58	46.385	74.0
-112.55	46.05	88.0
-112.54	39.155	89.2
-112.53	32.993	130.0
-112.503	34.435	84.0
-112.5	30.067	83.0
-112.498	34.438	84.0
-112.47	34.497	85.0
-112.44	38.852	37.7
-112.44	46.245	85.0
-112.438	37.455	91.0
-112.38	47.027	80.0
-112.336	45.718	79.0
-112.335	37.02	47.0
-112.333	45.717	82.0
-112.318	37.285	55.0
-112.29	34.792	60.0
-112.26	45.568	34.7
-112.26	45.568	77.8
-112.23	41.597	92.0
-112.23	41.603	84.0
-112.23	41.608	88.0
-112.201	46.683	75.0
-112.15	40.517	71.0
-112.13	32.127	77.0
-112.126	46.618	75.0
-112.12	46.48	75.0
-112.116	31.083	160.0
-112.11	34.282	62.0
-112.1	38.628	75.0
-112.07	34.543	62.0
-112.01	45.917	65.0
-111.97	42.14	79.0
-111.88	32.895	81.0
-111.84	33.835	76.0
-111.73	45.368	74.6
-111.7	45.382	93.4
-111.66	33.525	77.0
-111.6	32.6	36.0
-111.58	43.825	100.0
-111.55	56.75	51.3
-111.536	43.907	235.0
-111.535	43.893	364.0
-111.53	32.417	87.0
-111.53	43.94	244.0
-111.52	42.575	51.2
-111.52	43.892	221.0
-111.52	43.908	21.0
-111.51	32.047	86.0
-111.5	42.595	28.0
-111.483	32.783	54.0
-111.47	33.85	86.0
-111.436	43.897	220.0
-111.416	29.25	94.0
-111.398	32.397	94.0
-111.37	37.422	56.0
-111.151	38.722	43.0
-111.13	31.883	85.0
-111.116	32.183	107.0
-111.11	32.988	76.0
-111.1	43.617	41.0
-111.09	43.635	44.8
-111.07	31.983	124.0
-111.07	43.625	72.8
-111.066	31.967	90.0
-111.06	38.59	79.0
-111.06	38.773	54.0
-111.05	33.163	85.0
-111.04	31.907	81.0
-111.02	33.093	95.0
-111.0	31.883	103.0
-111.0	32.513	47.0
-110.96	33.355	55.0
-110.906	39.045	56.0
-110.808	32.618	77.0
-110.8	31.867	74.0
-110.76	31.378	91.0
-110.75	31.833	86.0
-110.74	46.965	76.0
-110.71	46.967	111.0
-110.71	46.967	65.0
-110.7	32.667	64.0
-110.683	38.795	51.0
-110.68	33.033	60.0
-110.66	32.073	68.0
-110.616	64.711	43.0
-110.521	38.685	45.0
-110.495	46.94	69.0
-110.416	31.167	93.0
-110.4	39.178	66.0
-110.241	64.49	48.0
-110.23	32.203	70.0
-110.14	38.72	49.0
-110.12	32.837	84.0
-110.11	31.687	78.0
-110.068	32.043	66.0
-109.956	45.058	57.0
-109.946	45.042	52.0
-109.91	45.377	64.0
-109.901	45.377	68.0
-109.821	45.367	58.0
-109.75	32.557	107.0
-109.708	38.827	78.0
-109.666	28.633	80.0
-109.65	38.517	78.0
-109.63	38.767	20.0
-109.625	32.963	83.0
-109.611	32.965	74.0
-109.6	39.983	63.0
-109.59	32.178	51.0
-109.566	42.767	50.0
-109.55	30.333	73.0
-109.55	39.05	92.0
-109.541	41.85	67.0
-109.541	41.85	71.0
-109.54	58.377	59.8
-109.52	58.23	46.4
-109.52	58.23	50.0
-109.37	41.593	45.0
-109.36	37.732	66.0
-109.31	34.565	86.0
-109.306	38.272	79.0
-109.306	38.272	60.0
-109.3	40.167	65.0
-109.29	38.247	62.0
-109.29	38.247	54.0
-109.29	38.247	65.0
-109.29	38.247	64.0
-109.28	43.867	90.0
-109.268	34.335	76.0
-109.24	34.343	79.0
-109.09	44.485	107.7
-109.03	32.9	128.0
-109.01	44.517	36.1
-108.983	45.017	70.0
-108.96	32.193	49.1
-108.95	34.88	41.8
-108.91	32.17	75.2
-108.9	45.017	68.0
-108.883	45.0	66.0
-108.88	32.208	98.8
-108.866	44.983	77.0
-108.866	44.983	63.0
-108.85	37.783	125.0
-108.84	34.91	119.7
-108.83	32.22	78.8
-108.83	32.235	36.5
-108.83	32.255	58.8
-108.83	35.14	45.6
-108.83	35.41	85.5
-108.8	32.202	59.4
-108.79	31.972	32.5
-108.79	32.185	99.0
-108.783	32.333	74.0
-108.77	32.243	105.0
-108.77	35.24	51.3
-108.77	37.783	149.0
-108.76	34.29	70.3
-108.71	34.27	66.5
-108.69	34.92	43.7
-108.66	35.39	53.2
-108.65	35.11	112.1
-108.62	38.95	60.0
-108.6	35.54	45.6
-108.5	33.05	107.0
-108.486	32.675	90.0
-108.47	39.967	54.0
-108.383	39.95	52.0
-108.35	32.533	86.0
-108.33	35.59	32.3
-108.3	31.85	113.0
-108.3	32.85	97.0
-108.3	35.59	45.6
-108.22	35.72	55.1
-108.21	35.5	72.2
-108.17	35.38	41.8
-108.12	35.53	45.6
-108.066	32.8	79.0
-108.03	36.55	73.0
-107.98	34.935	67.0
-107.93	32.512	71.8
-107.92	32.538	105.1
-107.92	34.953	71.0
-107.91	34.98	63.0
-107.866	43.412	75.0
-107.8	31.9	109.0
-107.67	37.933	213.0
-107.66	42.508	62.0
-107.6	37.59	112.0
-107.595	37.585	96.0
-107.593	37.58	88.0
-107.58	32.717	108.0
-107.23	32.417	64.4
-107.2	35.52	67.0
-107.18	35.515	67.0
-107.15	35.502	100.0
-107.15	35.502	79.0
-107.15	35.522	79.0
-107.14	41.225	40.0
-107.091	39.022	100.0
-107.09	38.897	130.0
-107.09	39.023	96.0
-107.08	32.417	63.0
-107.07	39.0	78.0
-107.05	34.08	5.2
-107.04	34.0	26.2
-107.04	34.017	94.3
-107.04	34.017	55.3
-107.04	34.055	31.8
-107.04	34.085	31.4
-107.03	34.02	52.5
-107.03	34.02	26.1
-107.03	34.063	40.7
-107.03	34.097	44.7
-107.02	34.06	67.6
-107.02	34.07	48.7
-107.02	34.08	50.2
-107.01	34.017	57.6
-107.01	34.043	63.5
-107.01	34.08	54.6
-107.01	34.08	78.8
-107.01	34.08	24.7
-107.01	34.082	87.7
-107.0	34.008	72.0
-107.0	34.085	102.3
-107.0	34.085	33.5
-106.99	31.915	50.4
-106.99	34.007	92.0
-106.99	34.035	38.9
-106.99	34.035	96.2
-106.99	34.035	53.0
-106.99	34.035	0.8
-106.99	35.875	41.9
-106.99	35.885	40.2
-106.99	35.908	35.1
-106.98	31.883	30.8
-106.98	31.883	85.7
-106.98	34.113	92.6
-106.97	33.998	46.3
-106.97	34.033	1.7
-106.97	34.033	79.2
-106.97	34.033	50.1
-106.96	33.997	81.0
-106.96	34.182	99.5
-106.96	35.883	36.1
-106.95	37.917	98.0
-106.95	37.928	75.0
-106.95	37.933	100.0
-106.945	38.988	112.0
-106.945	38.988	108.0
-106.945	38.988	105.0
-106.94	34.025	65.0
-106.94	34.025	96.5
-106.94	34.05	33.6
-106.923	40.838	105.0
-106.9	32.017	120.4
-106.9	41.177	30.0
-106.87	31.967	88.2
-106.87	32.233	28.0
-106.85	32.133	18.2
-106.85	32.133	56.0
-106.82	31.967	105.0
-106.785	42.303	54.0
-106.73	31.945	96.0
-106.73	32.3	28.0
-106.73	32.3	74.2
-106.72	31.85	49.0
-106.72	31.933	100.0
-106.72	35.78	71.0
-106.71	35.807	84.0
-106.7	31.833	33.6
-106.7	31.833	117.6
-106.7	31.867	84.0
-106.7	31.867	50.4
-106.7	31.867	103.6
-106.7	31.923	84.0
-106.7	31.973	79.0
-106.7	35.712	75.0
-106.69	31.958	84.0
-106.68	31.85	46.2
-106.68	31.85	116.2
-106.68	31.85	47.6
-106.68	31.85	33.6
-106.68	31.85	84.0
-106.68	31.85	102.2
-106.68	31.85	93.8
-106.68	31.867	35.0
-106.68	31.867	39.2
-106.68	31.867	98.0
-106.68	31.867	74.2
-106.68	31.908	96.0
-106.68	32.383	56.0
-106.671	41.78	44.0
-106.65	39.517	103.0
-106.618	41.727	42.0
-106.61	31.953	120.0
-106.6	31.953	120.0
-106.6	32.45	115.0
-106.6	37.433	108.0
-106.525	38.983	100.0
-106.505	39.002	88.0
-106.5	38.68	75.0
-106.5	38.685	70.0
-106.481	38.77	85.0
-106.48	37.292	118.0
-106.48	37.293	146.0
-106.46	38.983	124.0
-106.435	38.973	119.0
-106.4	39.55	94.0
-106.366	37.783	112.0
-106.28	40.932	97.0
-106.258	41.417	50.0
-106.25	35.948	50.3
-106.25	35.957	91.7
-106.25	40.32	71.0
-106.24	35.955	74.9
-106.23	36.042	72.1
-106.22	35.977	31.2
-106.22	35.977	67.5
-106.22	35.977	42.0
-106.183	39.372	214.0
-106.18	39.368	147.0
-106.18	39.368	138.0
-106.15	35.75	57.5
-106.14	35.658	52.5
-106.133	39.433	117.0
-106.133	40.332	97.0
-106.116	35.467	51.0
-106.1	32.442	94.0
-106.08	35.898	29.8
-105.973	40.398	144.0
-105.958	40.407	138.0
-105.95	35.987	85.4
-105.95	35.987	66.2
-105.94	40.405	90.0
-105.9	36.378	55.2
-105.843	39.76	126.0
-105.836	39.762	125.0
-105.833	39.533	103.0
-105.833	39.767	83.0
-105.826	39.758	206.0
-105.815	39.575	96.0
-105.811	39.573	130.0
-105.81	36.212	55.2
-105.79	42.068	37.0
-105.783	28.317	106.0
-105.768	42.152	51.0
-105.698	39.767	85.0
-105.695	39.762	192.0
-105.67	40.25	66.0
-105.55	39.867	61.0
-105.53	40.742	82.0
-105.52	36.7	59.0
-105.516	38.267	78.0
-105.441	38.142	68.0
-105.4	36.717	79.0
-105.391	41.638	24.0
-105.39	40.128	80.0
-105.33	38.5	80.0
-105.318	41.173	46.0
-105.301	42.825	89.0
-105.288	39.838	74.0
-105.288	39.855	31.0
-105.285	39.843	120.0
-105.27	39.783	67.0
-105.24	39.675	57.0
-105.24	39.68	72.0
-105.24	39.682	67.0
-105.185	41.145	59.0
-105.14	38.438	50.0
-105.083	38.233	51.0
-105.078	43.208	69.0
-105.018	55.292	91.2
-105.01	39.757	133.0
-105.01	39.772	99.0
-104.56	29.892	72.8
-104.556	55.747	42.7
-104.556	55.747	42.5
-104.555	55.748	47.5
-104.551	55.747	42.2
-104.536	56.13	33.3
-104.48	29.8	110.0
-104.46	37.38	35.7
-104.37	32.538	34.0
-103.9	43.19	64.3
-103.75	44.35	79.0
-103.706	56.128	34.0
-103.7	56.132	33.1
-103.626	55.667	27.2
-103.626	55.68	25.4
-103.626	55.68	29.2
-103.62	37.767	93.0
-103.62	37.767	66.0
-103.616	37.767	79.0
-103.6	23.633	123.0
-103.316	18.885	13.0
-103.198	54.575	60.0
-103.115	56.158	37.3
-103.058	59.657	34.6
-103.05	39.04	65.0
-102.96	45.87	64.9
-102.93	45.84	57.7
-102.828	54.635	36.5
-102.828	54.637	39.2
-102.8	54.393	46.7
-102.74	55.868	26.6
-102.74	55.868	30.2
-102.736	55.87	28.4
-102.49	38.593	67.5
-102.23	43.74	67.4
-102.22	43.74	63.8
-102.1	38.898	62.0
-102.08	38.875	62.0
-102.056	64.657	39.0
-101.968	54.615	33.9
-101.89	54.79	35.9
-101.89	54.79	41.8
-101.88	54.78	38.5
-101.858	54.805	40.0
-101.846	54.637	48.0
-101.83	54.72	33.2
-101.821	59.857	30.3
-101.8	44.9	91.9
-101.665	56.583	37.2
-101.66	36.913	62.0
-101.633	56.63	30.4
-101.571	54.79	54.7
-101.57	54.79	64.7
-101.568	54.79	61.7
-101.5	43.81	60.1
-101.463	48.373	43.0
-101.356	55.202	30.5
-101.33	48.455	49.0
-101.26	43.85	78.7
-101.106	56.823	28.7
-101.101	56.827	32.7
-101.016	44.37	81.0
-100.95	56.747	26.1
-100.853	48.907	47.0
-100.775	55.163	27.0
-100.563	54.932	42.6
-100.563	54.932	43.6
-100.44	56.908	25.1
-100.438	56.91	29.6
-100.435	56.908	23.6
-100.38	54.57	37.4
-100.266	25.667	44.0
-100.228	54.213	54.6
-100.228	54.213	57.5
-100.205	54.758	22.8
-100.108	54.845	37.7
-100.106	54.847	36.2
-100.04	43.677	109.3
-100.04	43.68	109.3
-100.04	43.7	102.7
-100.04	43.738	130.3
-100.04	43.74	130.3
-99.98	54.868	36.4
-99.955	59.853	39.8
-99.818	16.705	40.0
-99.778	17.983	14.0
-99.74	43.79	114.1
-99.72	43.82	109.1
-99.605	56.485	37.8
-99.57	43.83	65.0
-99.57	43.832	65.0
-99.342	20.097	73.0
-99.18	43.45	60.8
-99.0	19.477	83.0
-98.64	54.88	39.9
-98.64	54.88	42.8
-98.457	55.17	47.7
-98.41	55.192	49.5
-98.17	38.383	70.0
-98.167	38.367	63.0
-98.13	55.49	45.5
-98.13	55.49	49.6
-98.13	55.49	47.9
-97.9	55.7	48.0
-97.87	55.7	62.7
-97.858	55.67	51.1
-97.82	55.74	76.4
-97.81	55.75	79.6
-97.76	55.827	49.9
-97.68	55.9	48.8
-97.67	55.91	53.4
-97.618	55.925	51.7
-96.96	37.632	53.2
-96.94	37.833	65.1
-96.93	37.787	58.5
-96.92	45.71	51.5
-96.9	37.805	53.3
-96.39	38.718	59.4
-96.36	39.733	41.9
-96.31	38.882	65.3
-95.96	37.283	69.0
-95.92	34.94	43.7
-95.59	34.76	32.7
-95.51	34.95	50.0
-95.51	34.97	46.2
-95.44	34.91	42.1
-95.183	43.167	18.0
-94.9	74.683	121.0
-94.87	36.978	59.0
-94.565	50.263	51.8
-94.565	50.263	50.2
-94.17	39.083	49.0
-94.17	41.692	49.0
-94.16	41.66	49.0
-94.1	41.562	49.0
-94.05	42.627	39.0
-94.05	42.63	41.0
-94.02	42.633	38.0
-94.015	48.828	44.3
-94.012	48.832	43.8
-93.83	34.383	46.0
-93.813	51.012	27.4
-93.755	49.673	34.0
-93.74	49.69	40.0
-93.734	51.05	43.9
-93.725	49.663	44.0
-93.718	49.292	31.1
-93.715	51.032	32.4
-93.687	49.687	46.0
-93.467	49.433	49.0
-93.137	49.766	39.5
-93.136	49.767	38.0
-93.083	16.925	47.0
-93.068	48.7	24.0
-92.883	50.1	36.0
-92.883	50.1	35.0
-92.867	36.05	67.0
-92.823	50.997	41.5
-92.617	50.05	43.0
-92.613	49.757	38.3
-92.61	49.757	38.8
-92.45	49.433	22.0
-92.45	49.45	41.0
-92.433	49.467	42.0
-92.25	34.7	44.0
-92.25	48.917	43.0
-91.948	49.407	31.7
-91.915	41.387	62.0
-91.908	41.36	62.0
-91.75	46.92	47.0
-91.72	47.817	33.0
-91.717	47.817	36.0
-91.628	46.962	40.0
-91.5	49.5	43.0
-91.405	47.118	36.0
-91.33	41.205	62.0
-91.307	49.036	37.9
-91.306	49.044	38.0
-91.3	48.983	41.0
-91.25	38.15	52.0
-91.167	37.65	54.0
-91.103	47.105	30.0
-90.897	49.893	40.0
-90.769	48.54	41.8
-90.768	48.543	40.9
-90.733	47.533	29.0
-90.67	37.5	53.0
-90.667	48.3	38.0
-90.633	48.233	46.0
-90.583	48.217	29.0
-90.389	52.621	30.7
-90.352	51.504	26.8
-90.352	51.504	24.4
-90.352	51.504	24.6
-89.8	46.997	43.0
-89.733	47.667	25.0
-89.708	47.105	37.0
-89.692	47.542	33.0
-89.625	47.417	37.0
-89.605	49.171	27.4
-89.605	49.172	27.6
-89.57	46.75	44.0
-89.567	46.733	44.0
-89.527	48.054	55.9
-89.5	47.15	40.0
-89.492	47.583	30.0
-89.425	47.45	30.0
-89.405	47.975	31.0
-89.367	47.317	41.0
-89.345	48.035	39.0
-89.292	47.65	31.0
-89.25	46.5	35.9
-89.25	47.533	41.0
-89.25	48.055	42.0
-89.248	48.088	44.0
-89.188	49.752	32.3
-89.177	47.358	41.0
-89.16	48.017	44.0
-89.033	47.408	44.0
-89.027	48.173	54.0
-89.017	47.75	41.0
-89.0	47.555	46.0
-88.958	49.028	40.4
-88.958	49.028	41.0
-88.956	49.026	39.9
-88.93	14.76	392.0
-88.93	14.76	266.0
-88.907	47.822	31.0
-88.9	41.02	59.0
-88.855	48.175	39.0
-88.848	48.263	54.0
-88.808	47.55	46.0
-88.808	47.55	46.0
-88.801	49.336	38.8
-88.792	47.842	44.0
-88.783	47.467	45.0
-88.717	47.733	45.0
-88.65	47.603	47.0
-88.64	48.26	44.0
-88.61	32.34	36.0
-88.608	47.4	40.0
-88.583	47.508	47.0
-88.568	48.275	44.0
-88.542	47.95	41.0
-88.518	51.575	25.5
-88.518	51.575	28.8
-88.517	47.792	41.0
-88.422	47.54	48.0
-88.413	50.434	38.5
-88.413	50.434	41.9
-88.39	48.015	49.0
-88.258	47.577	48.0
-88.257	47.685	44.0
-88.25	47.8	46.0
-88.22	47.577	33.0
-88.217	47.54	46.0
-88.203	47.517	44.0
-88.193	47.503	41.0
-88.135	48.21	35.0
-88.125	48.06	46.0
-88.117	47.85	49.0
-88.067	47.958	46.0
-88.055	47.717	44.0
-88.033	48.15	33.0
-88.017	47.4	41.0
-87.952	50.382	35.2
-87.95	50.381	35.1
-87.949	50.382	34.9
-87.9	47.925	46.0
-87.893	40.81	59.0
-87.892	47.638	47.0
-87.853	48.67	39.0
-87.833	48.208	39.0
-87.807	40.762	58.0
-87.8	47.795	40.0
-87.788	40.755	60.0
-87.742	48.05	41.0
-87.739	49.829	28.4
-87.739	49.829	30.6
-87.717	48.275	56.0
-87.674	49.814	31.7
-87.674	49.814	34.9
-87.673	49.815	31.4
-87.608	50.162	53.5
-87.517	47.61	42.0
-87.517	48.183	53.0
-87.515	48.595	41.0
-87.427	48.183	49.0
-87.425	48.093	36.0
-87.267	33.3	46.0
-87.192	47.983	39.0
-87.16	47.503	46.0
-87.133	46.758	49.0
-87.117	47.333	46.0
-87.0	47.822	48.0
-86.995	48.177	61.0
-86.95	47.158	46.0
-86.943	48.292	61.0
-86.925	47.383	50.0
-86.923	48.588	33.0
-86.9	47.675	51.0
-86.863	48.047	42.0
-86.85	47.942	42.0
-86.808	48.693	43.0
-86.692	47.313	49.0
-86.68	48.585	39.0
-86.667	47.965	45.0
-86.65	47.722	54.0
-86.62	48.13	61.0
-86.575	47.058	46.0
-86.567	47.517	48.0
-86.565	47.2	57.0
-86.472	40.89	58.0
-86.47	40.89	59.0
-86.46	40.908	59.0
-86.452	40.918	58.0
-86.45	47.767	46.0
-86.395	48.315	37.0
-86.383	47.017	48.0
-86.365	48.075	41.0
-86.317	48.797	33.6
-86.316	48.8	33.4
-86.3	52.742	31.7
-86.295	52.74	34.1
-86.295	52.74	28.3
-86.295	52.74	29.5
-86.268	48.35	44.0
-86.262	47.998	45.0
-86.233	48.025	36.0
-86.217	47.008	42.0
-86.183	47.797	31.0
-86.11	47.375	46.0
-86.1	48.596	32.3
-86.099	48.592	31.1
-86.042	47.842	69.0
-86.02	33.267	40.0
-85.952	49.774	31.1
-85.95	49.773	31.3
-85.94	47.025	43.0
-85.935	47.59	59.0
-85.848	49.177	36.0
-85.848	49.18	39.0
-85.848	49.18	33.0
-85.848	49.183	38.0
-85.848	49.185	36.0
-85.82	42.723	45.0
-85.81	49.158	37.1
-85.81	49.187	38.0
-85.78	47.017	56.0
-85.76	47.1	47.0
-85.605	47.66	38.0
-85.533	47.4	47.0
-85.517	47.023	42.0
-85.46	47.53	54.0
-85.385	47.295	48.0
-85.283	47.028	43.0
-85.263	47.267	54.0
-85.245	47.44	36.0
-85.193	47.567	33.0
-85.105	47.19	50.0
-85.09	47.36	39.0
-85.05	47.728	54.0
-84.962	47.13	46.0
-84.87	40.975	41.0
-84.675	9.157	25.99
-84.671	9.164	28.48
-84.667	9.173	21.18
-84.39	35.005	28.0
-84.317	35.917	30.0
-84.114	8.741	48.0
-84.093	8.557	62.21
-84.089	8.565	59.19
-84.085	8.573	65.68
-84.077	8.592	43.0
-83.65	36.083	35.0
-83.563	42.425	58.0
-83.277	34.782	51.0
-83.24	34.753	54.0
-83.177	34.665	49.0
-83.15	34.757	57.0
-83.017	42.1	50.0
-83.017	42.1	50.0
-82.733	43.8	33.0
-82.667	46.4	49.0
-82.667	46.4	52.0
-82.65	46.5	51.0
-82.617	46.383	53.0
-82.617	46.5	50.0
-82.6	46.383	47.0
-82.6	46.383	48.0
-82.417	42.717	42.0
-82.367	42.833	38.0
-82.267	42.567	38.0
-82.267	42.667	42.0
-82.12	33.92	68.0
-82.1	37.2	56.0
-82.0	37.333	71.0
-81.667	33.283	44.0
-81.552	46.509	45.9
-81.545	46.498	42.6
-81.394	48.705	34.0
-81.389	48.704	33.5
-81.388	46.628	51.0
-81.338	46.65	46.0
-81.329	46.689	36.8
-81.326	46.69	36.1
-81.303	46.65	45.0
-81.283	-4.617	35.0
-81.267	-4.45	28.0
-81.237	33.437	70.0
-81.168	46.748	38.5
-81.167	-4.283	37.0
-81.163	46.748	37.8
-81.15	34.313	62.0
-81.1	36.817	43.0
-81.067	46.438	44.3
-81.05	46.433	47.0
-81.05	46.433	49.0
-80.882	46.564	36.1
-80.88	46.8	49.1
-80.879	46.564	39.6
-80.876	46.806	48.9
-80.827	46.676	37.9
-80.826	46.68	39.4
-80.809	46.671	40.0
-80.768	37.342	123.0
-80.75	34.538	46.0
-80.533	39.333	51.0
-80.463	34.7	40.0
-80.358	32.887	54.0
-80.28	48.51	50.9
-80.2	37.033	36.0
-79.898	37.905	48.0
-79.817	38.233	49.0
-79.783	8.95	75.0
-79.783	8.95	74.0
-79.783	8.967	73.0
-79.767	8.933	74.0
-79.72	48.52	38.6
-79.72	48.52	34.3
-79.667	9.032	58.5
-79.667	9.033	59.0
-79.667	9.05	41.0
-79.667	9.05	41.2
-79.65	9.05	46.0
-79.65	9.05	46.4
-79.458	24.398	44.0
-79.26	24.545	36.0
-79.25	-3.133	55.0
-79.248	24.553	42.0
-79.235	24.562	37.0
-79.183	42.983	50.0
-79.117	-6.583	39.0
-79.1	42.933	46.0
-79.097	48.28	31.6
-79.097	48.28	31.7
-79.083	23.61	23.0
-79.083	42.85	46.0
-79.083	48.267	32.0
-79.083	48.267	32.0
-79.048	23.613	18.0
-79.03	36.425	41.0
-78.967	36.387	41.0
-78.96	49.82	38.6
-78.95	49.81	44.0
-78.93	34.57	64.0
-78.9	36.428	36.0
-78.833	36.312	40.0
-78.7	47.4	35.0
-78.7	47.4	40.0
-78.7	47.4	38.0
-78.7	47.4	32.0
-78.63	42.45	54.0
-78.5	44.85	37.0
-78.482	35.853	49.0
-78.44	48.25	39.8
-78.42	35.792	54.0
-78.33	34.117	69.0
-78.33	35.952	50.0
-78.328	35.727	46.0
-78.183	8.567	47.0
-78.182	8.567	46.8
-78.12	36.07	61.0
-78.093	37.765	41.0
-77.983	33.947	54.0
-77.958	-11.0	31.0
-77.95	8.85	45.0
-77.95	8.85	45.1
-77.933	41.9	58.0
-77.92	36.417	51.0
-77.9	8.867	39.0
-77.9	8.867	39.3
-77.9	36.87	59.0
-77.9	38.037	38.0
-77.86	34.228	41.0
-77.783	44.533	33.0
-77.78	37.667	40.0
-77.753	36.035	59.0
-77.75	49.717	34.6
-77.749	49.716	35.1
-77.749	49.716	34.4
-77.749	49.716	32.8
-77.749	49.716	35.4
-77.733	49.7	36.0
-77.733	49.7	35.0
-77.733	49.7	32.0
-77.717	44.867	36.0
-77.717	44.867	33.0
-77.717	49.7	35.0
-77.693	48.53	36.9
-77.69	48.53	31.6
-77.685	48.528	30.3
-77.6	48.14	34.3
-77.59	37.095	57.0
-77.556	48.097	33.9
-77.556	48.097	36.3
-77.55	37.753	59.0
-77.55	48.083	34.0
-77.55	48.083	36.0
-77.532	7.067	29.0
-77.524	48.101	42.5
-77.432	7.082	28.0
-77.4	7.098	28.0
-77.32	34.652	53.0
-77.32	36.83	52.0
-77.0	-1.0	65.0
-76.89	-13.5	45.0
-76.89	-0.733	65.0
-76.887	-0.597	70.0
-76.883	-0.403	71.0
-76.88	36.528	61.0
-76.872	-0.337	71.0
-76.86	-0.325	71.0
-76.77	39.32	50.0
-76.75	-10.483	17.0
-76.7	42.417	60.0
-76.663	-0.378	69.0
-76.65	49.24	35.5
-76.65	49.24	34.9
-76.65	49.25	35.8
-76.647	-0.195	72.0
-76.637	-0.477	66.0
-76.602	-0.3	65.0
-76.6	-12.683	35.0
-76.582	-0.457	63.0
-76.558	53.524	14.7
-76.552	53.524	19.2
-76.48	-0.695	68.0
-76.48	36.85	81.0
-76.461	52.169	28.8
-76.461	52.169	26.7
-76.457	-0.815	70.0
-76.402	-0.483	71.0
-76.367	-0.672	69.0
-76.367	-0.183	71.0
-76.352	-0.647	76.0
-76.315	37.037	56.0
-76.288	0.003	72.0
-76.277	-0.327	70.0
-76.262	-0.152	72.0
-76.257	-0.183	70.0
-76.257	-0.02	69.0
-76.233	-11.65	196.0
-76.218	-0.402	71.0
-76.215	-0.09	66.0
-76.21	-0.797	79.0
-76.17	49.49	25.8
-76.17	49.49	27.8
-76.145	-0.362	76.0
-76.09	-0.617	70.0
-76.074	52.7	27.2
-76.074	52.701	30.7
-76.06	36.327	51.0
-76.022	0.062	76.0
-76.01	36.607	57.0
-75.99	35.52	52.0
-75.99	37.355	59.0
-75.98	49.6	25.4
-75.93	37.295	59.0
-75.913	0.022	73.0
-75.876	49.611	28.6
-75.876	49.611	35.7
-75.867	49.617	36.0
-75.833	49.6	29.0
-75.806	52.206	30.6
-75.806	52.206	31.3
-75.804	52.205	31.4
-75.804	52.206	30.1
-75.725	38.08	64.0
-75.713	37.708	66.0
-75.69	38.39	52.0
-75.63	38.778	51.0
-75.629	46.284	21.4
-75.629	46.284	27.9
-75.61	38.343	62.0
-75.573	38.175	55.0
-75.51	38.332	46.0
-75.21	53.458	27.0
-75.204	53.456	22.7
-75.2	40.567	37.0
-74.847	50.73	31.6
-74.847	50.733	26.1
-74.809	49.789	23.3
-74.809	49.789	24.4
-74.8	49.783	23.0
-74.8	49.783	24.0
-74.62	49.48	25.1
-74.61	49.48	25.6
-74.61	49.48	24.8
-74.467	51.013	24.2
-74.467	51.013	26.0
-74.33	49.88	23.5
-74.33	49.88	24.1
-74.27	44.333	34.0
-74.18	39.84	46.0
-74.17	49.89	23.2
-74.17	49.9	21.1
-74.03	49.79	30.4
-73.927	53.329	24.0
-73.9	44.583	51.0
-73.75	-15.517	44.0
-73.632	-37.64	172.0
-73.62	43.3	44.0
-73.575	61.689	39.5
-73.575	61.692	37.0
-73.575	61.692	36.2
-73.545	-37.652	63.0
-73.53	44.217	35.0
-73.5	-37.417	79.0
-73.467	44.233	33.0
-72.833	43.25	51.0
-72.832	-38.582	89.0
-72.817	43.283	51.0
-72.77	38.907	45.5
-72.745	39.341	50.0
-72.55	43.333	50.0
-72.45	42.617	63.0
-72.275	39.225	50.0
-72.252	46.489	23.7
-72.252	46.489	26.1
-72.252	46.489	25.8
-72.133	42.783	68.0
-72.088	52.002	41.2
-72.088	52.002	30.8
-72.0	44.1	56.0
-71.98	43.267	68.0
-71.77	48.489	27.5
-71.598	-16.5	41.0
-71.567	-16.55	41.0
-71.567	-16.55	44.0
-71.533	43.2	72.0
-71.48	44.033	100.0
-71.417	-14.9	75.0
-71.417	42.633	68.0
-71.35	-14.9	32.0
-71.287	54.8	24.5
-71.285	54.79	26.4
-71.167	44.067	79.0
-71.117	42.383	50.0
-71.1	52.177	31.6
-70.917	43.117	45.0
-70.883	-28.983	21.0
-70.882	-28.982	36.0
-70.767	-17.067	57.0
-70.75	-33.333	79.0
-70.717	-28.083	23.0
-70.65	-17.267	66.0
-70.65	-17.267	75.0
-70.617	44.05	75.0
-70.517	-16.85	42.0
-70.383	-27.267	36.0
-70.362	41.705	57.0
-70.35	-27.1	36.0
-70.3	-26.533	10.0
-70.298	-16.932	50.0
-70.167	-33.467	61.0
-70.08	41.75	48.0
-69.917	-19.682	93.0
-69.618	-15.4	46.0
-69.567	-26.25	75.0
-69.552	-15.425	55.0
-69.533	-15.577	76.0
-69.525	-15.467	49.0
-69.508	-15.577	67.0
-69.5	-15.5	55.0
-69.472	-15.63	44.0
-69.017	-15.783	99.0
-69.0	-54.0	96.0
-68.617	44.4	60.0
-68.233	-17.567	73.0
-68.027	31.085	47.7
-67.96	-3.11	76.0
-67.922	-4.288	54.0
-67.733	-16.417	68.0
-67.532	-17.067	62.0
-67.467	-5.5	89.0
-67.433	33.582	45.3
-67.313	45.678	63.0
-67.313	45.678	63.0
-67.183	-19.383	83.0
-67.172	18.148	25.0
-67.15	33.505	51.5
-66.833	-18.467	109.0
-66.833	-18.283	112.0
-66.817	-18.167	90.0
-66.8	45.433	83.0
-66.683	-22.197	94.0
-66.683	45.683	69.0
-66.682	-21.3	94.0
-66.667	45.932	60.0
-66.638	50.213	27.8
-66.583	-21.033	75.0
-66.533	-4.4	52.0
-66.447	50.295	27.4
-66.447	50.295	27.4
-66.44	45.455	67.0
-66.167	48.783	51.0
-66.149	48.786	43.8
-66.149	48.786	51.2
-66.149	48.786	45.3
-66.133	-21.167	94.0
-66.133	48.783	45.0
-66.117	48.783	44.0
-66.08	-3.517	42.0
-66.067	47.283	57.0
-66.05	-21.25	70.0
-66.042	48.838	46.6
-66.042	48.838	45.7
-66.017	48.817	46.0
-66.0	48.817	47.0
-65.945	-3.007	60.3
-65.883	47.483	64.0
-65.517	48.95	48.0
-64.283	-22.767	27.0
-64.273	44.723	80.0
-64.067	-17.1	59.0
-63.625	44.638	59.0
-63.592	44.638	59.0
-63.533	-17.533	50.0
-63.527	-20.43	55.0
-63.48	44.923	67.0
-63.447	45.782	49.0
-63.445	46.265	45.0
-63.267	-17.517	56.0
-63.25	-38.682	77.0
-63.138	46.262	35.0
-63.012	-17.938	53.0
-62.835	-4.923	29.0
-62.803	43.643	45.0
-62.548	62.3	36.0
-62.48	42.995	69.0
-62.452	16.508	72.0
-62.298	-38.32	55.0
-62.278	43.082	46.0
-62.278	59.172	51.0
-62.198	-21.582	47.0
-62.148	-21.282	57.0
-62.14	-3.437	44.0
-62.138	58.875	52.0
-62.12	-20.108	66.0
-62.108	56.327	20.4
-62.108	56.33	20.0
-62.053	56.318	21.0
-62.053	56.32	20.8
-62.0	-21.567	87.0
-61.945	-21.63	91.0
-61.922	-21.313	60.0
-61.89	-21.448	50.0
-61.887	-20.053	107.0
-61.878	-21.42	65.0
-61.87	-20.038	82.0
-61.867	45.65	62.0
-61.815	-20.95	62.0
-61.787	-20.13	60.0
-61.777	58.872	41.0
-61.768	43.772	49.0
-61.768	58.44	50.0
-61.755	-20.125	117.0
-61.72	-20.177	63.0
-61.682	-20.2	109.0
-61.673	-20.275	59.0
-61.657	-21.507	52.0
-61.62	-20.602	58.0
-61.563	-20.742	56.0
-61.56	43.25	60.0
-61.505	-22.89	89.0
-61.46	-21.02	60.0
-61.303	-23.252	89.0
-61.01	-22.547	76.0
-61.0	-21.0	85.0
-61.0	-20.0	138.0
-60.932	-19.817	95.0
-60.832	43.692	55.0
-60.767	-23.172	85.0
-60.742	43.807	52.0
-60.717	43.578	80.0
-60.717	43.578	80.0
-60.665	43.605	47.0
-60.632	-22.948	76.0
-60.628	43.852	43.0
-60.62	43.852	45.0
-60.605	43.863	51.0
-60.603	-3.258	54.0
-60.595	43.865	46.0
-60.582	-3.517	36.0
-60.525	58.815	48.0
-60.5	46.15	59.0
-60.5	46.15	62.0
-60.5	46.15	67.0
-60.5	46.15	63.0
-60.498	43.943	46.0
-60.443	57.525	50.0
-60.437	43.577	46.0
-60.288	43.998	41.0
-60.233	43.752	49.0
-60.23	43.878	52.0
-60.227	43.895	43.0
-60.205	43.9	31.0
-60.192	43.885	51.0
-60.147	43.622	44.0
-60.127	43.958	48.0
-60.127	43.958	48.0
-60.127	43.958	30.0
-60.123	43.955	57.0
-60.117	43.65	45.0
-60.11	43.948	51.0
-60.108	44.167	45.0
-60.107	43.627	48.0
-60.088	43.72	39.0
-60.078	43.75	44.0
-60.068	44.162	48.0
-60.012	-2.948	53.0
-59.967	-21.767	84.0
-59.962	57.328	47.0
-59.945	43.827	46.0
-59.892	-3.27	42.0
-59.882	43.683	44.0
-59.86	-22.655	73.0
-59.855	43.705	44.0
-59.792	-3.292	57.0
-59.778	44.018	48.0
-59.713	43.662	44.0
-59.707	-3.242	54.0
-59.685	44.192	47.0
-59.635	43.982	45.0
-59.635	44.02	40.0
-59.625	44.145	39.0
-59.61	44.033	49.0
-59.575	44.918	47.0
-59.573	44.038	43.0
-59.568	43.835	41.0
-59.555	-3.195	40.0
-59.552	44.023	46.0
-59.533	44.037	53.0
-59.532	44.095	44.0
-59.482	-20.417	125.0
-59.472	44.637	45.0
-59.45	44.592	52.0
-59.398	44.872	52.0
-59.357	44.105	43.0
-59.355	44.107	42.0
-59.138	-3.687	61.0
-59.118	44.008	47.0
-59.105	-3.91	50.0
-59.103	44.002	51.0
-58.95	-20.132	99.0
-58.918	44.67	47.0
-58.875	-20.058	83.0
-58.862	-3.097	30.0
-58.762	-3.875	34.0
-58.727	-3.327	97.0
-58.712	-2.347	38.0
-58.567	44.168	54.0
-58.435	44.785	50.0
-58.357	44.445	43.0
-58.23	55.497	50.0
-58.21	-4.42	46.0
-58.205	-3.602	48.0
-57.875	44.695	47.0
-57.763	55.592	54.0
-57.747	55.532	48.0
-57.708	55.53	57.0
-57.7	55.508	49.0
-57.698	44.587	41.0
-57.575	-4.307	60.0
-57.367	-1.717	32.0
-57.345	44.735	45.0
-57.103	-4.312	61.0
-57.087	-3.302	32.0
-56.97	-1.955	35.0
-56.902	48.832	46.0
-56.867	-14.532	68.0
-56.843	48.852	43.0
-56.817	49.898	50.0
-56.682	-14.35	72.0
-56.667	-16.25	98.0
-56.55	49.905	50.0
-56.55	49.905	49.0
-56.532	-23.763	59.0
-56.417	-23.917	66.0
-56.417	-14.582	50.0
-56.405	-3.323	28.0
-56.38	-2.223	51.0
-56.217	-15.7	66.0
-56.1	-15.592	58.0
-55.94	-1.305	27.0
-55.892	-1.725	46.0
-55.875	54.908	50.0
-55.8	-3.96	32.0
-55.77	-28.82	42.3
-55.77	-28.82	42.0
-55.767	54.852	36.0
-55.742	54.86	48.0
-55.673	54.65	47.0
-55.448	-3.768	53.0
-55.405	-2.925	18.0
-55.252	54.412	49.0
-55.242	-23.1	86.0
-55.242	-23.1	85.8
-55.228	-3.395	56.0
-55.048	-28.3	44.7
-55.0	-16.0	120.0
-54.992	-29.017	52.0
-54.96	-28.408	44.0
-54.828	-2.107	51.0
-54.812	-22.267	59.0
-54.812	-22.267	72.7
-54.807	-1.757	56.0
-54.718	-20.485	52.6
-54.718	-20.485	54.8
-54.71	53.937	47.0
-54.498	45.392	64.0
-54.397	54.365	48.0
-54.38	-23.465	58.0
-54.33	-2.11	36.0
-53.95	-20.42	86.7
-53.95	-20.42	87.0
-53.902	-23.873	54.0
-53.87	-21.88	51.2
-53.87	-21.88	51.0
-53.853	-23.877	54.0
-53.532	-16.917	78.8
-53.532	-16.917	72.8
-53.528	44.68	61.0
-53.44	-24.01	76.2
-53.26	-17.87	54.3
-53.26	-17.87	54.0
-53.167	-17.382	105.0
-53.0	-16.75	63.0
-52.94	-2.737	33.0
-52.755	-27.91	39.4
-52.755	-27.91	38.0
-52.705	44.283	58.0
-52.667	-16.532	54.0
-52.635	45.065	55.0
-52.632	-1.532	48.0
-52.583	45.392	41.0
-52.533	-24.81	48.0
-52.442	44.19	56.0
-52.43	-24.11	45.7
-52.43	-24.11	46.0
-52.427	44.04	58.0
-52.423	-24.492	61.0
-52.423	-24.492	60.0
-52.42	-25.41	53.5
-52.42	-25.41	54.0
-52.367	-1.067	50.0
-52.35	-30.017	92.0
-52.327	-26.565	51.0
-52.31	-27.148	55.0
-52.307	-22.96	42.0
-52.243	-27.143	45.0
-52.195	-26.465	42.3
-52.142	45.762	44.0
-52.138	45.223	65.0
-52.122	44.247	66.0
-52.102	-21.758	50.7
-52.048	-22.398	47.6
-52.048	-22.398	54.1
-52.04	-26.66	54.0
-51.982	-24.95	40.0
-51.943	45.582	54.0
-51.932	-2.65	47.0
-51.93	-27.53	60.7
-51.93	-27.53	61.0
-51.91	-23.09	57.8
-51.91	-23.09	58.0
-51.898	-30.167	112.0
-51.78	-17.732	68.1
-51.78	-17.732	72.4
-51.778	-27.423	58.0
-51.75	-20.88	46.0
-51.682	45.612	45.0
-51.678	-20.75	46.0
-51.663	-28.7	51.2
-51.663	-28.7	51.0
-51.66	-27.59	57.6
-51.66	-27.59	58.0
-51.66	-25.31	62.0
-51.623	-0.65	45.0
-51.5	-28.17	41.0
-51.46	-27.22	60.2
-51.46	-27.22	60.0
-51.433	-26.712	41.4
-51.433	-26.712	41.0
-51.403	45.197	47.0
-51.398	-22.132	130.0
-51.398	-18.898	39.0
-51.398	-18.898	46.1
-51.375	-1.175	30.0
-51.34	-22.332	43.3
-51.34	-22.332	48.9
-51.315	-26.743	58.0
-51.25	-27.08	68.7
-51.25	-27.08	69.0
-51.22	-23.49	42.0
-51.19	-28.053	49.0
-51.182	-28.313	61.0
-51.17	44.698	66.0
-51.147	-26.472	60.0
-51.117	-26.587	57.9
-51.097	-28.355	52.0
-51.085	-28.12	45.0
-51.057	-26.273	60.0
-51.057	-26.273	61.0
-51.032	-26.192	64.5
-51.032	-26.192	65.4
-51.015	-26.775	72.0
-50.95	-24.208	82.0
-50.882	-24.625	65.0
-50.882	-1.967	55.0
-50.87	-24.373	58.3
-50.87	-24.373	59.7
-50.858	-25.01	68.8
-50.84	-26.86	68.4
-50.83	-21.35	54.1
-50.805	-21.667	75.0
-50.785	-25.877	74.4
-50.785	-25.877	81.2
-50.74	-23.727	64.0
-50.708	-1.017	121.0
-50.7	-26.01	69.9
-50.7	-26.01	70.0
-50.64	-23.28	64.2
-50.605	-22.415	41.6
-50.603	-22.415	44.0
-50.52	-26.302	70.4
-50.52	-26.302	69.0
-50.423	48.208	41.0
-50.422	-1.955	66.0
-50.417	-24.0	52.0
-50.415	-21.1	44.0
-50.415	-21.1	51.7
-50.325	-27.817	82.0
-50.317	-23.317	44.0
-50.132	-26.382	72.0
-50.132	48.403	35.0
-50.083	-16.233	38.0
-50.042	-22.302	50.1
-50.042	-22.302	56.3
-50.0	-27.2	77.0
-49.967	-20.417	63.0
-49.96	-23.47	50.2
-49.96	48.445	36.0
-49.913	-23.567	55.0
-49.87	-23.22	69.1
-49.87	-23.22	69.0
-49.798	-29.33	71.0
-49.757	-27.508	76.0
-49.755	-21.692	44.2
-49.755	-21.692	49.8
-49.74	-27.6	73.9
-49.74	-27.6	74.0
-49.5	-28.667	75.0
-49.455	44.725	55.0
-49.333	-28.667	76.0
-49.217	-21.482	45.0
-49.152	-22.383	54.0
-49.152	-22.383	55.6
-49.067	45.818	60.0
-48.942	46.927	53.0
-48.927	-20.687	53.4
-48.927	-20.687	59.1
-48.917	-20.75	50.0
-48.885	46.738	45.0
-48.862	46.432	50.0
-48.853	46.762	38.0
-48.848	46.597	40.0
-48.838	46.427	48.0
-48.837	46.727	49.0
-48.82	47.045	59.0
-48.817	-21.6	60.0
-48.807	46.77	43.0
-48.792	46.728	34.0
-48.787	46.793	42.0
-48.78	46.75	29.0
-48.775	47.045	44.0
-48.773	-23.435	62.5
-48.773	-23.435	69.0
-48.757	46.785	69.0
-48.742	46.753	42.0
-48.738	46.852	49.0
-48.663	46.332	42.0
-48.645	46.73	39.0
-48.55	46.418	45.0
-48.548	-22.3	42.0
-48.542	46.445	42.0
-48.542	46.462	48.0
-48.538	46.7	43.0
-48.528	46.543	46.0
-48.52	46.413	46.0
-48.515	46.445	48.0
-48.515	46.458	46.0
-48.515	46.47	47.0
-48.51	-23.38	99.0
-48.48	46.445	43.0
-48.48	46.475	44.0
-48.475	46.713	40.0
-48.445	46.475	51.0
-48.433	46.567	42.0
-48.425	46.507	48.0
-48.42	46.682	47.0
-48.383	45.745	37.0
-48.373	46.983	63.0
-48.367	47.012	39.0
-48.352	46.578	51.0
-48.325	45.857	46.0
-48.317	-22.117	41.0
-48.307	47.38	47.0
-48.3	-14.217	63.0
-48.282	46.458	48.0
-48.233	-13.533	48.0
-48.228	-23.417	54.5
-48.228	-23.417	62.9
-48.198	47.513	69.0
-48.173	46.843	47.0
-48.167	61.4	44.0
-48.167	61.417	43.0
-48.133	46.605	58.0
-48.107	46.808	48.0
-48.065	46.863	51.0
-48.037	46.645	46.0
-48.022	46.807	51.0
-47.968	46.938	45.0
-47.957	47.122	41.0
-47.81	-22.67	56.0
-47.665	46.887	55.0
-47.64	-22.543	120.0
-47.64	-22.543	119.6
-47.628	47.032	54.0
-47.602	47.212	43.0
-47.582	-20.898	32.0
-47.58	-22.52	66.3
-47.58	-22.52	66.0
-47.567	-21.317	74.0
-47.517	-23.0	40.0
-47.495	-5.522	47.0
-47.382	-22.367	36.0
-47.298	-23.267	67.0
-47.2	-22.632	62.0
-47.162	47.323	46.0
-46.982	-22.7	102.0
-46.95	-22.432	79.0
-46.907	-8.707	42.0
-46.898	-22.75	30.0
-46.867	-23.2	57.0
-46.833	-17.5	52.0
-46.817	-22.432	47.0
-46.782	-22.7	54.0
-46.75	-18.0	46.0
-46.717	-22.717	94.0
-46.7	-22.617	83.0
-46.648	-22.517	33.0
-46.648	-22.482	56.0
-46.617	-23.648	66.0
-46.582	-21.8	62.1
-46.582	-21.8	67.0
-46.548	-23.117	42.0
-46.548	-22.95	68.0
-46.308	-7.47	63.0
-46.25	-8.233	96.0
-46.127	-5.812	46.0
-46.117	-7.382	77.0
-46.105	-8.272	77.0
-46.083	-8.042	48.0
-46.013	-23.282	60.0
-46.007	-23.213	64.0
-46.0	-23.317	69.0
-46.0	60.967	33.0
-46.0	60.967	39.0
-45.983	60.967	37.0
-45.955	-23.295	69.0
-45.948	-7.542	51.0
-45.832	-23.167	105.0
-45.712	-23.133	145.0
-45.692	-7.04	56.0
-45.632	-23.082	123.0
-45.6	-23.317	61.0
-45.567	-22.932	80.0
-45.39	-3.617	70.0
-45.382	-22.867	101.0
-45.308	-23.217	41.7
-45.25	-22.617	63.0
-45.243	-22.835	66.0
-45.2	-23.133	61.0
-45.2	-23.082	54.0
-45.2	-22.8	106.0
-45.117	-22.717	99.0
-45.017	-22.632	108.0
-44.917	-22.717	90.0
-44.898	-22.567	126.0
-44.85	-22.662	65.0
-44.767	-22.782	80.0
-44.582	-22.5	45.0
-44.543	-5.332	71.0
-44.417	-3.307	90.0
-44.317	-6.382	65.0
-44.282	-23.032	100.0
-44.2	-22.567	57.0
-44.032	-22.417	49.0
-43.977	-3.55	50.0
-43.847	-19.986	56.0
-43.532	-22.35	55.0
-43.467	-22.467	50.0
-43.317	-22.148	53.0
-43.067	-22.932	44.0
-42.943	-22.432	65.0
-42.833	-12.5	38.0
-42.795	-22.032	49.0
-42.752	-22.9	54.0
-42.537	-22.792	89.0
-42.52	-22.048	48.0
-42.517	-22.85	42.0
-42.5	-14.067	51.0
-42.368	-22.017	61.0
-42.285	-2.81	63.0
-42.2	-21.417	61.0
-42.125	-21.202	70.0
-42.092	-21.82	30.0
-41.967	-21.713	46.0
-41.918	-21.467	74.0
-41.918	-21.467	57.0
-41.908	-20.82	39.0
-41.665	-22.187	82.0
-41.342	-21.5	58.0
-41.285	-21.763	56.0
-41.21	-21.853	78.0
-41.132	-21.957	50.0
-41.103	-22.017	71.0
-40.5	-11.25	51.0
-39.855	-9.688	57.0
-39.835	-9.47	35.0
-39.835	-9.47	31.7
-38.567	-11.2	28.0
-38.467	-12.467	65.0
-38.467	-12.217	85.0
-38.332	-12.382	72.0
-38.2	-12.35	77.0
-38.167	-12.132	66.0
-38.017	-12.032	74.0
-37.832	-5.587	92.0
-37.802	-5.657	106.0
-37.35	-5.182	84.0
-37.267	-10.732	69.0
-37.257	-4.982	87.0
-37.167	-10.682	67.0
-37.117	-10.7	53.0
-37.082	-10.65	74.0
-37.032	-10.75	61.0
-37.0	-10.65	62.0
-36.867	-10.7	42.0
-36.648	-10.582	62.0
-36.648	-10.5	52.0
-36.632	-5.117	105.0
-36.617	-10.532	58.0
-36.583	-6.333	69.0
-36.582	-6.332	65.2
-36.45	-10.432	45.0
-36.382	-10.4	46.0
-36.35	-10.45	46.0
-36.217	-9.867	69.0
-36.182	-9.767	67.0
-36.132	-5.355	73.0
-36.117	-9.782	65.0
-36.1	-9.832	70.0
-36.027	-5.437	63.0
-36.025	-5.403	25.0
-35.982	-9.882	53.0
-35.875	-5.153	38.0
-35.867	-5.4	78.0
-35.828	-5.522	55.0
-35.817	-5.225	77.0
-35.782	-9.667	65.0
-35.732	-9.617	51.0
-35.582	-5.632	71.0
-35.492	-5.405	83.0
-35.353	-5.857	46.0
-35.242	-5.887	57.0
-35.217	-5.8	91.0
-35.16	-6.002	91.0
-23.82	64.9	156.0
-23.21	64.93	159.0
-22.06	65.36	145.0
-21.92	64.56	180.0
-21.39	63.85	170.0
-21.15	63.86	159.0
-20.62	63.74	143.0
-20.4	63.84	127.0
-20.287	63.445	121.0
-20.28	63.44	111.0
-20.21	63.75	127.0
-18.87	67.17	377.0
-18.86	65.31	182.0
-18.14	63.76	97.0
-17.217	14.733	45.0
-17.133	14.917	44.0
-17.067	14.533	42.0
-17.018	14.602	42.0
-15.94	66.44	123.0
-15.23	64.31	95.0
-14.88	65.74	106.0
-14.88	65.76	106.0
-13.79	65.51	91.0
-13.66	65.14	97.0
-12.4	49.27	56.0
-11.756	12.841	31.8
-11.75	49.44	51.0
-11.73	49.44	34.7
-11.53	49.5	13.5
-11.52	49.51	11.6
-11.33	49.55	13.5
-10.333	6.817	58.0
-9.217	52.817	70.0
-9.003	52.508	52.0
-8.983	52.633	58.0
-8.8	52.767	57.0
-8.716	29.483	54.0
-8.667	7.45	54.0
-8.667	7.45	54.0
-8.633	7.567	58.0
-8.468	42.228	151.0
-8.46	42.237	81.0
-8.383	53.133	61.0
-8.35	53.2	66.0
-8.2	5.667	54.0
-8.197	70.168	77.0
-8.133	53.217	60.0
-7.682	53.447	70.0
-7.162	37.985	80.0
-7.1	53.4	72.0
-6.733	53.633	75.0
-6.683	54.55	60.0
-6.32	55.228	81.0
-6.317	54.783	59.0
-6.217	52.867	65.0
-5.823	34.167	67.0
-5.8	54.833	59.0
-5.77	34.235	71.0
-5.707	42.42	80.0
-5.253	50.2	93.0
-5.234	50.185	105.0
-5.194	50.142	95.0
-5.173	50.168	103.0
-5.173	50.168	103.0
-5.171	50.168	102.0
-5.17	50.13	97.0
-5.123	50.399	84.0
-5.09	50.376	96.0
-5.083	50.2	137.0
-5.05	50.2	113.0
-5.033	50.233	126.0
-5.02	50.312	95.0
-4.985	50.284	95.0
-4.942	50.218	69.0
-4.578	50.672	67.0
-4.518	34.223	65.0
-4.333	34.322	72.0
-3.868	34.475	81.0
-3.8	50.95	55.0
-3.667	51.1	54.0
-3.6	48.467	83.0
-3.567	48.533	87.0
-3.518	34.097	79.0
-3.468	34.243	90.0
-2.917	48.283	53.0
-2.75	53.5	43.0
-2.217	50.783	78.0
-2.2	47.683	95.0
-2.15	54.25	65.0
-1.962	35.697	68.6
-1.96	35.667	91.6
-1.926	35.593	86.2
-1.922	35.593	87.9
-1.407	54.8	58.0
-1.367	46.7	85.0
-1.333	9.5	40.0
-1.25	47.45	66.0
-1.25	53.05	64.0
-1.25	53.05	71.0
-1.233	52.567	37.0
-1.217	48.417	66.0
-1.09	54.583	48.0
-1.023	54.553	49.0
-1.0	8.0	40.0
-1.0	53.35	77.0
-0.998	53.145	115.0
-0.993	53.158	120.0
-0.987	53.143	114.0
-0.98	53.125	82.0
-0.967	53.317	83.0
-0.95	53.417	75.0
-0.933	53.467	85.0
-0.902	53.133	70.0
-0.865	53.11	61.0
-0.667	10.167	40.0
0.033	52.167	54.0
0.415	38.051	87.7
0.45	50.783	30.0
1.083	45.083	90.0
1.183	45.567	109.0
1.373	43.453	84.0
1.383	46.083	90.0
1.6	45.883	93.0
1.6	46.025	97.0
2.144	39.178	67.3
2.333	45.533	91.0
2.938	45.772	73.0
2.957	46.177	150.0
3.082	45.378	70.0
3.087	45.378	127.0
3.283	45.183	90.0
3.933	44.033	102.0
3.933	46.917	73.0
4.113	44.988	86.0
5.28	60.34	50.0
5.283	43.5	57.0
5.32	5.87	52.0
5.5	13.933	73.0
5.71	58.93	37.0
5.85	44.125	63.0
5.92	5.51	45.0
6.076	49.755	75.0
6.167	45.867	96.0
6.217	45.8	54.0
6.333	58.317	20.0
6.333	58.317	25.0
6.333	58.317	19.0
6.4	4.85	45.0
6.467	46.433	78.0
6.567	46.45	64.0
6.617	46.45	66.0
6.652	46.71	104.0
6.698	46.982	60.0
6.833	43.467	62.0
6.833	46.9	65.0
6.858	50.177	60.0
6.867	43.467	66.0
6.867	45.75	56.0
6.867	45.767	53.0
6.9	46.95	63.0
6.925	50.133	66.0
6.925	50.133	59.0
6.993	49.313	68.0
7.025	47.478	109.0
7.067	49.333	71.0
7.067	49.338	66.0
7.067	58.6	48.0
7.078	47.022	105.0
7.083	49.333	53.0
7.083	49.333	52.0
7.183	47.117	49.0
7.25	18.633	68.0
7.272	50.413	75.0
7.272	50.413	70.0
7.3	18.667	63.0
7.3	18.667	65.0
7.3	18.667	68.0
7.4	45.727	51.0
7.432	47.092	93.0
7.518	50.57	58.0
7.638	47.86	70.0
7.715	47.532	81.0
7.718	47.512	164.0
7.722	46.42	62.0
7.75	17.25	61.0
7.78	4.04	50.0
7.805	45.438	30.0
7.827	47.555	74.0
7.885	45.487	27.0
7.912	48.555	92.0
7.933	47.393	96.0
7.947	50.758	58.0
8.032	45.417	26.0
8.033	47.873	58.0
8.033	47.873	72.0
8.097	46.272	75.0
8.11	46.262	48.0
8.137	49.258	111.0
8.138	49.235	116.0
8.14	49.23	139.0
8.147	49.222	134.0
8.23	47.553	106.0
8.265	47.197	89.0
8.287	47.592	126.0
8.392	45.843	46.0
8.393	45.813	47.0
8.425	47.45	64.0
8.44	46.532	28.0
8.447	47.452	95.0
8.462	45.955	41.0
8.463	47.422	135.0
8.473	45.922	44.0
8.483	46.983	117.0
8.483	46.983	105.0
8.483	47.092	124.0
8.487	47.097	98.0
8.493	47.088	98.0
8.5	47.1	123.0
8.5	47.1	101.0
8.5	47.1	107.0
8.503	47.09	113.0
8.505	47.087	105.0
8.508	47.092	125.0
8.517	46.98	71.0
8.517	46.983	94.0
8.553	47.353	97.0
8.565	46.595	86.0
8.568	46.582	60.0
8.57	46.58	43.0
8.57	49.773	69.0
8.572	45.865	54.0
8.582	46.645	69.0
8.592	45.823	43.0
8.6	46.552	50.0
8.6	47.267	125.0
8.6	47.267	109.0
8.6	47.267	116.0
8.6	47.28	113.0
8.603	46.962	67.0
8.615	45.937	38.0
8.633	47.262	109.0
8.65	45.967	110.0
8.66	48.682	72.0
8.663	45.973	46.0
8.667	45.983	128.0
8.667	47.362	99.0
8.667	48.73	70.0
8.68	47.35	100.0
8.683	46.0	117.0
8.695	10.725	46.0
8.717	10.717	54.0
8.748	46.672	72.0
8.772	10.698	53.0
8.8	46.59	56.0
8.805	56.647	58.0
8.822	46.47	49.0
8.825	47.723	64.0
8.833	58.417	49.0
8.86	46.422	79.0
8.867	47.75	69.0
8.895	45.958	61.0
8.897	45.93	75.0
8.92	47.613	104.0
8.953	45.942	84.0
8.953	47.2	102.0
9.003	56.627	65.0
9.025	46.008	67.0
9.038	46.017	67.0
9.082	49.113	102.0
9.09	45.84	49.0
9.13	43.99	60.0
9.13	50.392	70.0
9.14	47.328	34.0
9.142	45.87	42.0
9.147	47.457	93.0
9.15	45.917	53.0
9.15	45.917	57.0
9.167	45.95	103.0
9.172	47.808	103.0
9.177	45.953	48.0
9.217	47.685	71.0
9.217	47.685	58.0
9.252	50.38	73.0
9.267	47.662	65.0
9.268	46.033	41.0
9.283	46.017	85.0
9.285	45.975	49.0
9.298	46.102	44.0
9.298	56.53	66.0
9.307	78.017	132.0
9.308	78.018	132.0
9.325	46.135	41.0
9.333	47.633	112.0
9.348	45.885	49.0
9.348	56.815	58.0
9.383	47.617	105.0
9.4	47.633	103.0
9.405	47.463	100.0
9.417	47.6	103.0
9.457	47.627	85.0
9.457	47.627	75.0
9.457	47.627	81.0
9.467	47.525	79.0
9.48	47.132	69.0
9.487	47.13	46.0
9.505	47.058	78.0
9.515	47.712	82.0
9.518	47.345	50.0
9.533	47.5	77.0
9.558	47.475	62.0
9.572	47.438	70.0
9.633	47.467	56.0
9.633	47.467	58.0
9.683	63.05	52.0
9.683	63.05	54.0
9.683	63.05	63.0
9.683	63.05	47.0
9.683	63.05	25.0
9.683	63.05	26.0
9.698	48.428	71.0
9.73	53.655	52.0
9.762	38.827	58.0
9.893	52.345	55.0
9.933	48.338	88.0
9.95	62.033	42.0
9.967	41.875	38.0
9.972	46.827	49.0
10.008	51.608	56.0
10.057	45.762	49.0
10.067	45.717	107.0
10.067	45.717	90.0
10.067	45.733	85.0
10.08	45.708	49.0
10.097	53.765	47.0
10.1	50.858	63.0
10.11	46.763	46.0
10.133	47.15	80.0
10.147	48.492	71.0
10.267	51.217	91.0
10.267	56.383	63.0
10.292	51.217	108.0
10.305	48.603	82.0
10.308	51.2	88.0
10.333	51.167	67.0
10.343	51.655	59.0
10.343	51.655	68.0
10.343	51.655	60.0
10.343	51.655	53.0
10.343	51.655	52.0
10.383	61.083	50.0
10.405	52.185	71.0
10.417	51.042	85.0
10.417	51.067	93.0
10.443	43.377	105.0
10.45	51.017	98.0
10.453	43.358	95.0
10.458	51.3	63.0
10.475	51.217	60.0
10.5	59.533	47.0
10.508	51.017	80.0
10.508	51.042	72.0
10.517	50.967	75.0
10.525	50.95	65.0
10.533	51.033	70.0
10.533	51.217	39.0
10.533	51.25	56.0
10.542	51.03	64.0
10.542	51.317	78.0
10.55	51.212	45.0
10.567	51.15	56.0
10.575	51.133	51.0
10.583	51.45	44.0
10.6	50.967	66.0
10.6	51.05	67.0
10.608	45.543	52.0
10.633	51.008	75.0
10.633	51.208	46.0
10.638	48.837	64.0
10.64	45.602	53.0
10.642	51.15	79.0
10.65	50.975	80.0
10.65	51.2	64.0
10.667	51.205	63.0
10.675	45.652	54.0
10.675	50.967	67.0
10.683	51.127	92.0
10.692	50.892	85.0
10.692	50.963	67.0
10.7	51.117	70.0
10.7	52.025	68.0
10.7	59.42	60.0
10.7	59.917	52.0
10.708	51.175	82.0
10.708	51.217	54.0
10.713	45.688	51.0
10.717	45.683	90.0
10.717	51.233	60.0
10.725	47.552	92.0
10.725	47.552	84.0
10.733	45.7	119.0
10.733	45.717	97.0
10.733	51.05	61.0
10.75	50.908	101.0
10.767	50.858	94.0
10.767	51.067	72.0
10.768	45.737	47.0
10.78	47.458	54.0
10.798	47.472	69.0
10.802	45.785	43.0
10.808	51.04	83.0
10.85	52.77	91.0
10.852	38.308	96.0
10.858	50.95	44.0
10.896	-4.58	46.8
10.917	52.67	101.0
10.954	-4.475	48.0
10.962	-4.471	48.4
10.967	51.158	67.0
10.967	60.25	35.0
10.987	41.933	138.0
11.032	-4.249	71.6
11.035	-4.21	75.8
11.036	-4.411	56.3
11.044	-4.502	52.1
11.05	51.6	65.0
11.057	47.79	79.0
11.067	52.09	64.0
11.081	-4.316	69.7
11.081	-4.316	69.7
11.108	-4.216	83.2
11.108	-4.216	83.2
11.108	51.208	60.0
11.123	47.993	75.0
11.123	47.993	70.0
11.133	51.85	53.0
11.142	-4.433	62.1
11.145	-3.998	86.2
11.149	-4.008	87.1
11.15	50.9	45.0
11.152	-4.11	91.6
11.158	52.17	62.0
11.17	-4.515	57.4
11.175	-4.386	69.2
11.175	52.555	74.0
11.182	-4.464	61.7
11.185	-4.319	77.7
11.186	-4.585	54.9
11.192	-4.437	64.6
11.193	-4.171	91.8
11.198	-4.048	90.7
11.199	-4.568	56.0
11.2	51.1	57.0
11.204	-4.231	88.2
11.211	-4.717	53.7
11.212	-4.586	55.8
11.217	50.542	52.0
11.219	-3.904	76.2
11.222	-4.463	63.8
11.225	-4.319	79.7
11.225	51.025	44.0
11.225	52.54	67.0
11.226	-4.103	92.9
11.229	-4.123	93.2
11.23	-4.14	93.2
11.231	-4.232	88.9
11.233	64.0	47.0
11.238	-4.645	55.3
11.238	-4.645	55.8
11.242	-4.122	93.0
11.246	-4.47	64.3
11.25	-4.422	69.1
11.25	52.51	58.0
11.255	-4.484	63.6
11.255	-4.109	92.5
11.257	-4.481	64.0
11.267	-4.502	62.8
11.274	-4.515	62.3
11.286	-4.522	62.4
11.3	51.15	33.0
11.303	37.992	76.0
11.304	-4.714	58.6
11.313	47.907	81.0
11.313	47.907	83.0
11.313	47.907	82.0
11.313	47.907	88.0
11.313	47.907	93.0
11.313	47.907	96.0
11.313	47.907	78.0
11.313	47.907	86.0
11.313	47.907	74.0
11.313	47.907	77.0
11.313	47.907	73.0
11.313	47.907	80.0
11.313	47.907	84.0
11.313	47.907	85.0
11.325	47.852	107.0
11.325	47.852	70.0
11.325	47.852	68.0
11.325	52.85	85.0
11.328	-4.538	63.9
11.336	-4.448	70.7
11.342	-4.543	64.6
11.345	-4.621	62.0
11.345	-4.621	62.2
11.345	47.953	86.0
11.345	47.953	102.0
11.345	47.953	90.0
11.345	47.953	108.0
11.353	-4.613	62.8
11.355	-4.569	64.3
11.355	47.587	78.0
11.355	47.587	70.0
11.355	47.587	65.0
11.355	47.587	100.0
11.355	47.587	67.0
11.36	-4.263	86.3
11.363	-4.59	64.2
11.364	-4.828	65.5
11.371	-5.245	58.8
11.379	-4.063	82.3
11.382	-5.311	57.7
11.382	-4.927	68.5
11.383	52.383	60.0
11.384	-5.294	58.2
11.384	-4.978	68.4
11.4	52.49	64.0
11.402	-4.518	70.0
11.402	-4.503	70.7
11.404	-4.76	67.7
11.405	-5.364	57.7
11.408	-4.736	67.6
11.41	-5.426	56.8
11.412	-4.75	68.3
11.414	-4.794	69.5
11.42	-4.757	69.2
11.42	-4.503	71.9
11.422	-4.522	71.1
11.425	-4.586	69.0
11.425	52.39	64.0
11.426	-4.538	70.6
11.427	-4.725	69.2
11.429	-4.655	68.6
11.434	-5.124	67.6
11.435	-4.634	69.1
11.437	-4.866	73.1
11.442	52.74	75.0
11.446	-4.065	77.1
11.449	-4.8	72.9
11.45	-5.39	47.7
11.453	-4.812	73.6
11.457	-5.055	72.2
11.458	-5.393	37.3
11.458	-5.39	61.5
11.458	-4.252	84.4
11.464	-5.383	60.8
11.467	-4.795	74.4
11.469	-4.816	75.1
11.482	-4.654	72.9
11.486	-4.808	76.4
11.492	52.8	100.0
11.496	-4.887	78.3
11.497	-4.924	78.3
11.505	-4.871	78.9
11.506	-5.001	77.3
11.506	-4.443	79.3
11.535	-5.307	66.6
11.539	-4.984	79.5
11.54	-5.794	52.2
11.54	-5.252	68.3
11.541	-4.971	80.0
11.546	-5.046	77.4
11.548	-5.053	77.1
11.55	-5.041	77.7
11.553	-5.288	67.9
11.555	-4.99	79.9
11.555	-4.218	80.5
11.56	-5.248	69.3
11.564	-4.942	81.5
11.566	-4.737	79.5
11.568	-4.863	82.2
11.574	-5.031	78.8
11.575	52.267	68.0
11.583	62.567	51.0
11.583	62.567	52.0
11.585	-4.525	78.4
11.592	52.292	67.0
11.596	-5.32	68.9
11.596	-5.279	69.6
11.597	-4.522	78.5
11.6	52.875	78.0
11.61	-5.138	74.1
11.613	-5.013	79.8
11.613	-5.003	80.2
11.614	-5.235	70.9
11.614	-4.92	82.8
11.617	-20.4	45.2
11.617	51.04	64.0
11.617	53.18	54.0
11.619	-6.229	44.4
11.619	-4.157	74.2
11.622	-5.852	47.9
11.623	-6.736	57.0
11.625	-5.062	77.4
11.625	-4.581	77.8
11.625	49.592	62.0
11.625	51.842	70.0
11.626	-5.348	59.6
11.626	-5.348	59.6
11.628	-4.635	78.3
11.629	-5.572	45.8
11.63	-5.487	48.8
11.632	-5.233	71.0
11.632	-5.16	73.1
11.632	-5.093	75.9
11.632	-4.913	82.9
11.636	-4.846	83.3
11.644	-4.929	82.5
11.646	-4.852	83.3
11.649	-4.941	82.1
11.65	-5.02	79.0
11.651	-5.028	78.6
11.651	-4.664	78.7
11.652	-4.956	81.5
11.655	-5.041	77.8
11.656	-5.53	47.4
11.657	-5.851	46.9
11.658	-4.692	79.4
11.658	52.56	50.0
11.66	-4.877	83.1
11.661	-4.938	81.9
11.663	-5.416	54.8
11.665	-5.408	55.5
11.666	-5.368	58.6
11.666	-5.368	58.7
11.666	-5.368	58.7
11.666	-5.368	58.7
11.667	-5.424	54.3
11.668	-5.738	48.8
11.668	-5.036	77.6
11.673	-5.172	71.8
11.68	-5.59	46.8
11.685	-5.578	46.9
11.685	-5.131	72.7
11.688	-4.939	81.1
11.692	50.11	56.0
11.693	-5.807	47.7
11.693	-5.12	72.8
11.696	-5.48	50.5
11.697	-4.899	81.8
11.699	-5.2	70.3
11.702	-5.419	54.7
11.703	-4.896	81.7
11.703	-4.879	82.0
11.704	-5.223	69.8
11.705	-5.804	47.5
11.707	47.412	61.0
11.707	47.45	65.0
11.707	47.482	60.0
11.708	-5.603	47.1
11.708	-5.603	47.1
11.709	-5.543	47.8
11.712	-5.882	45.1
11.712	-4.892	81.5
11.714	-5.827	46.9
11.714	-5.23	69.3
11.719	-5.556	47.6
11.722	-4.696	78.2
11.724	-5.189	69.3
11.727	-5.006	76.4
11.731	-5.084	72.2
11.741	-5.189	68.4
11.744	-5.574	47.5
11.745	-5.314	58.8
11.753	-6.138	43.4
11.753	-5.108	69.8
11.755	-4.859	80.5
11.757	-5.346	56.9
11.759	-5.185	67.3
11.761	-4.994	75.0
11.763	-5.49	49.7
11.771	-5.69	47.8
11.775	52.3	96.0
11.776	-5.177	66.3
11.782	-5.2	65.7
11.783	-4.266	69.4
11.786	-5.218	56.4
