lon	lat	dVs(%)
-15.0	-39.0	-0.0403
-15.0	-38.5	-0.0429
-15.0	-38.0	-0.0449
-15.0	-37.5	-0.0467
-15.0	-37.0	-0.0478
-15.0	-36.5	-0.0465
-15.0	-36.0	-0.043
-15.0	-35.5	-0.038
-15.0	-35.0	-0.0327
-15.0	-34.5	-0.0276
-15.0	-34.0	-0.0236
-15.0	-33.5	-0.0216
-15.0	-33.0	-0.0216
-15.0	-32.5	-0.0218
-15.0	-32.0	-0.0222
-15.0	-31.5	-0.0227
-15.0	-31.0	-0.0233
-15.0	-30.5	-0.0245
-15.0	-30.0	-0.0261
-15.0	-29.5	-0.0279
-15.0	-29.0	-0.0297
-15.0	-28.5	-0.0311
-15.0	-28.0	-0.0312
-15.0	-27.5	-0.0303
-15.0	-27.0	-0.0287
-15.0	-26.5	-0.0267
-15.0	-26.0	-0.0245
-15.0	-25.5	-0.0225
-15.0	-25.0	-0.0217
-15.0	-24.5	-0.0224
-15.0	-24.0	-0.0235
-15.0	-23.5	-0.0246
-15.0	-23.0	-0.0257
-15.0	-22.5	-0.0266
-15.0	-22.0	-0.027
-15.0	-21.5	-0.0269
-15.0	-21.0	-0.0265
-15.0	-20.5	-0.0262
-15.0	-20.0	-0.0258
-15.0	-19.5	-0.0255
-15.0	-19.0	-0.0253
-15.0	-18.5	-0.025
-15.0	-18.0	-0.0248
-15.0	-17.5	-0.0244
-15.0	-17.0	-0.0239
-15.0	-16.5	-0.0234
-15.0	-16.0	-0.0228
-15.0	-15.5	-0.0221
-15.0	-15.0	-0.0213
-15.0	-14.5	-0.0205
-15.0	-14.0	-0.0201
-15.0	-13.5	-0.0199
-15.0	-13.0	-0.0198
-15.0	-12.5	-0.0204
-15.0	-12.0	-0.0219
-15.0	-11.5	-0.0239
-15.0	-11.0	-0.0263
-15.0	-10.5	-0.0289
-15.0	-10.0	-0.031
-15.0	-9.5	-0.0314
-15.0	-9.0	-0.0299
-15.0	-8.5	-0.0275
-15.0	-8.0	-0.025
-15.0	-7.5	-0.0223
-15.0	-7.0	-0.0197
-15.0	-6.5	-0.0177
-15.0	-6.0	-0.0164
-15.0	-5.5	-0.0153
-15.0	-5.0	-0.0138
-15.0	-4.5	-0.012
-15.0	-4.0	-0.0106
-15.0	-3.5	-0.0094
-15.0	-3.0	-0.0087
-15.0	-2.5	-0.009
-15.0	-2.0	-0.0102
-15.0	-1.5	-0.0121
-15.0	-1.0	-0.0145
-15.0	-0.5	-0.0174
-15.0	0.0	-0.0217
-15.0	0.5	-0.0259
-15.0	1.0	-0.0288
-15.0	1.5	-0.0309
-15.0	2.0	-0.0315
-15.0	2.5	-0.0307
-15.0	3.0	-0.0285
-15.0	3.5	-0.0251
-15.0	4.0	-0.0206
-15.0	4.5	-0.0139
-15.0	5.0	-0.0065
-15.0	5.5	-0.001
-15.0	6.0	0.0027
-15.0	6.5	0.0064
-15.0	7.0	0.0101
-15.0	7.5	0.0136
-15.0	8.0	0.0164
-15.0	8.5	0.0182
-15.0	9.0	0.0204
-15.0	9.5	0.0223
-15.0	10.0	0.0232
-15.0	10.5	0.0231
-15.0	11.0	0.023
-15.0	11.5	0.0232
-15.0	12.0	0.0238
-15.0	12.5	0.0244
-15.0	13.0	0.0249
-15.0	13.5	0.0254
-15.0	14.0	0.0271
-15.0	14.5	0.03
-15.0	15.0	0.0332
-15.0	15.5	0.0362
-15.0	16.0	0.039
-15.0	16.5	0.0413
-15.0	17.0	0.0435
-15.0	17.5	0.0452
-15.0	18.0	0.0461
-15.0	18.5	0.0466
-15.0	19.0	0.0467
-15.0	19.5	0.0454
-15.0	20.0	0.043
-15.0	20.5	0.0406
-15.0	21.0	0.0384
-15.0	21.5	0.0362
-15.0	22.0	0.0335
-15.0	22.5	0.0308
-15.0	23.0	0.0282
-15.0	23.5	0.0249
-15.0	24.0	0.0211
-15.0	24.5	0.0158
-15.0	25.0	0.0093
-15.0	25.5	0.0028
-15.0	26.0	-0.0033
-15.0	26.5	-0.0085
-15.0	27.0	-0.0141
-15.0	27.5	-0.0196
-15.0	28.0	-0.0239
-15.0	28.5	-0.0277
-15.0	29.0	-0.0313
-15.0	29.5	-0.0341
-15.0	30.0	-0.034
-15.0	30.5	-0.0307
-15.0	31.0	-0.0262
-15.0	31.5	-0.0212
-15.0	32.0	-0.016
-15.0	32.5	-0.0113
-15.0	33.0	-0.0086
-15.0	33.5	-0.009
-15.0	34.0	-0.0103
-15.0	34.5	-0.0116
-15.0	35.0	-0.013
-15.0	35.5	-0.0143
-15.0	36.0	-0.0149
-15.0	36.5	-0.0148
-15.0	37.0	-0.0144
-15.0	37.5	-0.0139
-15.0	38.0	-0.0127
-15.0	38.5	-0.0099
-15.0	39.0	-0.0061
-15.0	39.5	-0.002
-15.0	40.0	0.0019
-14.5	-40.0	-0.035
-14.5	-39.5	-0.0382
-14.5	-39.0	-0.0419
-14.5	-38.5	-0.0449
-14.5	-38.0	-0.0475
-14.5	-37.5	-0.0498
-14.5	-37.0	-0.0513
-14.5	-36.5	-0.05
-14.5	-36.0	-0.0459
-14.5	-35.5	-0.0406
-14.5	-35.0	-0.0349
-14.5	-34.5	-0.0294
-14.5	-34.0	-0.0247
-14.5	-33.5	-0.0217
-14.5	-33.0	-0.0212
-14.5	-32.5	-0.0209
-14.5	-32.0	-0.0209
-14.5	-31.5	-0.0213
-14.5	-31.0	-0.0222
-14.5	-30.5	-0.0233
-14.5	-30.0	-0.0248
-14.5	-29.5	-0.0266
-14.5	-29.0	-0.0285
-14.5	-28.5	-0.0301
-14.5	-28.0	-0.0304
-14.5	-27.5	-0.0296
-14.5	-27.0	-0.0282
-14.5	-26.5	-0.0266
-14.5	-26.0	-0.025
-14.5	-25.5	-0.0237
-14.5	-25.0	-0.0236
-14.5	-24.5	-0.0245
-14.5	-24.0	-0.0255
-14.5	-23.5	-0.0266
-14.5	-23.0	-0.0275
-14.5	-22.5	-0.0283
-14.5	-22.0	-0.0286
-14.5	-21.5	-0.0283
-14.5	-21.0	-0.0279
-14.5	-20.5	-0.0274
-14.5	-20.0	-0.0268
-14.5	-19.5	-0.026
-14.5	-19.0	-0.0254
-14.5	-18.5	-0.0249
-14.5	-18.0	-0.0243
-14.5	-17.5	-0.0238
-14.5	-17.0	-0.0232
-14.5	-16.5	-0.0226
-14.5	-16.0	-0.0221
-14.5	-15.5	-0.0215
-14.5	-15.0	-0.0211
-14.5	-14.5	-0.021
-14.5	-14.0	-0.0211
-14.5	-13.5	-0.0213
-14.5	-13.0	-0.0215
-14.5	-12.5	-0.0222
-14.5	-12.0	-0.0237
-14.5	-11.5	-0.026
-14.5	-11.0	-0.0289
-14.5	-10.5	-0.0318
-14.5	-10.0	-0.0344
-14.5	-9.5	-0.035
-14.5	-9.0	-0.0332
-14.5	-8.5	-0.0305
-14.5	-8.0	-0.0277
-14.5	-7.5	-0.0248
-14.5	-7.0	-0.0222
-14.5	-6.5	-0.0197
-14.5	-6.0	-0.0179
-14.5	-5.5	-0.016
-14.5	-5.0	-0.0134
-14.5	-4.5	-0.0106
-14.5	-4.0	-0.0086
-14.5	-3.5	-0.0073
-14.5	-3.0	-0.0064
-14.5	-2.5	-0.0066
-14.5	-2.0	-0.0079
-14.5	-1.5	-0.0101
-14.5	-1.0	-0.0127
-14.5	-0.5	-0.016
-14.5	0.0	-0.0204
-14.5	0.5	-0.0248
-14.5	1.0	-0.028
-14.5	1.5	-0.0303
-14.5	2.0	-0.0315
-14.5	2.5	-0.0307
-14.5	3.0	-0.0279
-14.5	3.5	-0.0242
-14.5	4.0	-0.0191
-14.5	4.5	-0.0124
-14.5	5.0	-0.0053
-14.5	5.5	0.0003
-14.5	6.0	0.0044
-14.5	6.5	0.0085
-14.5	7.0	0.0133
-14.5	7.5	0.0176
-14.5	8.0	0.0206
-14.5	8.5	0.0226
-14.5	9.0	0.0247
-14.5	9.5	0.0266
-14.5	10.0	0.0272
-14.5	10.5	0.0271
-14.5	11.0	0.0268
-14.5	11.5	0.0267
-14.5	12.0	0.0271
-14.5	12.5	0.0276
-14.5	13.0	0.0278
-14.5	13.5	0.0283
-14.5	14.0	0.0299
-14.5	14.5	0.0322
-14.5	15.0	0.0349
-14.5	15.5	0.0377
-14.5	16.0	0.0405
-14.5	16.5	0.0437
-14.5	17.0	0.0468
-14.5	17.5	0.049
-14.5	18.0	0.0503
-14.5	18.5	0.0514
-14.5	19.0	0.0518
-14.5	19.5	0.0508
-14.5	20.0	0.0482
-14.5	20.5	0.0452
-14.5	21.0	0.0423
-14.5	21.5	0.0394
-14.5	22.0	0.0369
-14.5	22.5	0.0344
-14.5	23.0	0.0322
-14.5	23.5	0.0299
-14.5	24.0	0.0267
-14.5	24.5	0.0219
-14.5	25.0	0.0153
-14.5	25.5	0.0084
-14.5	26.0	0.0014
-14.5	26.5	-0.0049
-14.5	27.0	-0.0106
-14.5	27.5	-0.0163
-14.5	28.0	-0.0209
-14.5	28.5	-0.0251
-14.5	29.0	-0.0292
-14.5	29.5	-0.0328
-14.5	30.0	-0.0333
-14.5	30.5	-0.03
-14.5	31.0	-0.0254
-14.5	31.5	-0.0205
-14.5	32.0	-0.0158
-14.5	32.5	-0.0117
-14.5	33.0	-0.0096
-14.5	33.5	-0.0097
-14.5	34.0	-0.0108
-14.5	34.5	-0.012
-14.5	35.0	-0.0132
-14.5	35.5	-0.0144
-14.5	36.0	-0.0151
-14.5	36.5	-0.0151
-14.5	37.0	-0.0149
-14.5	37.5	-0.0145
-14.5	38.0	-0.0129
-14.5	38.5	-0.0097
-14.5	39.0	-0.0056
-14.5	39.5	-0.0012
-14.5	40.0	0.0032
-14.0	-40.0	-0.0361
-14.0	-39.5	-0.0395
-14.0	-39.0	-0.0432
-14.0	-38.5	-0.0463
-14.0	-38.0	-0.0489
-14.0	-37.5	-0.0513
-14.0	-37.0	-0.0532
-14.0	-36.5	-0.0522
-14.0	-36.0	-0.0481
-14.0	-35.5	-0.0428
-14.0	-35.0	-0.037
-14.0	-34.5	-0.0315
-14.0	-34.0	-0.0265
-14.0	-33.5	-0.023
-14.0	-33.0	-0.0217
-14.0	-32.5	-0.0208
-14.0	-32.0	-0.0203
-14.0	-31.5	-0.0204
-14.0	-31.0	-0.0212
-14.0	-30.5	-0.0223
-14.0	-30.0	-0.0236
-14.0	-29.5	-0.0252
-14.0	-29.0	-0.027
-14.0	-28.5	-0.0287
-14.0	-28.0	-0.0294
-14.0	-27.5	-0.0289
-14.0	-27.0	-0.028
-14.0	-26.5	-0.0269
-14.0	-26.0	-0.0257
-14.0	-25.5	-0.0251
-14.0	-25.0	-0.0255
-14.0	-24.5	-0.0264
-14.0	-24.0	-0.0274
-14.0	-23.5	-0.0285
-14.0	-23.0	-0.0295
-14.0	-22.5	-0.0302
-14.0	-22.0	-0.03
-14.0	-21.5	-0.0293
-14.0	-21.0	-0.0286
-14.0	-20.5	-0.0279
-14.0	-20.0	-0.0269
-14.0	-19.5	-0.0258
-14.0	-19.0	-0.025
-14.0	-18.5	-0.0244
-14.0	-18.0	-0.0237
-14.0	-17.5	-0.023
-14.0	-17.0	-0.0222
-14.0	-16.5	-0.0215
-14.0	-16.0	-0.0209
-14.0	-15.5	-0.0203
-14.0	-15.0	-0.0202
-14.0	-14.5	-0.0206
-14.0	-14.0	-0.0213
-14.0	-13.5	-0.022
-14.0	-13.0	-0.0225
-14.0	-12.5	-0.0236
-14.0	-12.0	-0.0258
-14.0	-11.5	-0.0286
-14.0	-11.0	-0.0316
-14.0	-10.5	-0.0345
-14.0	-10.0	-0.0369
-14.0	-9.5	-0.0376
-14.0	-9.0	-0.036
-14.0	-8.5	-0.0334
-14.0	-8.0	-0.0307
-14.0	-7.5	-0.0275
-14.0	-7.0	-0.024
-14.0	-6.5	-0.021
-14.0	-6.0	-0.0186
-14.0	-5.5	-0.016
-14.0	-5.0	-0.0126
-14.0	-4.5	-0.0092
-14.0	-4.0	-0.0067
-14.0	-3.5	-0.0052
-14.0	-3.0	-0.004
-14.0	-2.5	-0.0041
-14.0	-2.0	-0.0056
-14.0	-1.5	-0.0082
-14.0	-1.0	-0.011
-14.0	-0.5	-0.0147
-14.0	0.0	-0.019
-14.0	0.5	-0.0233
-14.0	1.0	-0.0267
-14.0	1.5	-0.0294
-14.0	2.0	-0.0311
-14.0	2.5	-0.0302
-14.0	3.0	-0.0271
-14.0	3.5	-0.0231
-14.0	4.0	-0.0177
-14.0	4.5	-0.0112
-14.0	5.0	-0.0048
-14.0	5.5	0.0011
-14.0	6.0	0.0057
-14.0	6.5	0.0106
-14.0	7.0	0.0168
-14.0	7.5	0.022
-14.0	8.0	0.0248
-14.0	8.5	0.0267
-14.0	9.0	0.0286
-14.0	9.5	0.0299
-14.0	10.0	0.0308
-14.0	10.5	0.0312
-14.0	11.0	0.0312
-14.0	11.5	0.0311
-14.0	12.0	0.0309
-14.0	12.5	0.0307
-14.0	13.0	0.0303
-14.0	13.5	0.0305
-14.0	14.0	0.0316
-14.0	14.5	0.0335
-14.0	15.0	0.0363
-14.0	15.5	0.0395
-14.0	16.0	0.0429
-14.0	16.5	0.0473
-14.0	17.0	0.0511
-14.0	17.5	0.0534
-14.0	18.0	0.0549
-14.0	18.5	0.056
-14.0	19.0	0.0561
-14.0	19.5	0.0551
-14.0	20.0	0.0531
-14.0	20.5	0.0504
-14.0	21.0	0.0476
-14.0	21.5	0.0444
-14.0	22.0	0.0412
-14.0	22.5	0.0383
-14.0	23.0	0.0359
-14.0	23.5	0.0337
-14.0	24.0	0.0304
-14.0	24.5	0.0257
-14.0	25.0	0.0199
-14.0	25.5	0.0132
-14.0	26.0	0.006
-14.0	26.5	-0.0007
-14.0	27.0	-0.0072
-14.0	27.5	-0.0133
-14.0	28.0	-0.0183
-14.0	28.5	-0.0229
-14.0	29.0	-0.0273
-14.0	29.5	-0.0311
-14.0	30.0	-0.0321
-14.0	30.5	-0.0292
-14.0	31.0	-0.0248
-14.0	31.5	-0.0201
-14.0	32.0	-0.0158
-14.0	32.5	-0.0125
-14.0	33.0	-0.0106
-14.0	33.5	-0.0107
-14.0	34.0	-0.0115
-14.0	34.5	-0.0124
-14.0	35.0	-0.0134
-14.0	35.5	-0.0145
-14.0	36.0	-0.0152
-14.0	36.5	-0.0154
-14.0	37.0	-0.0153
-14.0	37.5	-0.015
-14.0	38.0	-0.0132
-14.0	38.5	-0.0097
-14.0	39.0	-0.0052
-14.0	39.5	-0.0004
-14.0	40.0	0.0045
-13.5	-40.0	-0.037
-13.5	-39.5	-0.0407
-13.5	-39.0	-0.0438
-13.5	-38.5	-0.0459
-13.5	-38.0	-0.0481
-13.5	-37.5	-0.0502
-13.5	-37.0	-0.0522
-13.5	-36.5	-0.0516
-13.5	-36.0	-0.0482
-13.5	-35.5	-0.0438
-13.5	-35.0	-0.0387
-13.5	-34.5	-0.0335
-13.5	-34.0	-0.0286
-13.5	-33.5	-0.0249
-13.5	-33.0	-0.023
-13.5	-32.5	-0.0216
-13.5	-32.0	-0.0204
-13.5	-31.5	-0.0197
-13.5	-31.0	-0.0202
-13.5	-30.5	-0.0213
-13.5	-30.0	-0.0225
-13.5	-29.5	-0.024
-13.5	-29.0	-0.0255
-13.5	-28.5	-0.027
-13.5	-28.0	-0.0282
-13.5	-27.5	-0.0283
-13.5	-27.0	-0.028
-13.5	-26.5	-0.0275
-13.5	-26.0	-0.0269
-13.5	-25.5	-0.0267
-13.5	-25.0	-0.0272
-13.5	-24.5	-0.0281
-13.5	-24.0	-0.0292
-13.5	-23.5	-0.0303
-13.5	-23.0	-0.0313
-13.5	-22.5	-0.0317
-13.5	-22.0	-0.0311
-13.5	-21.5	-0.03
-13.5	-21.0	-0.029
-13.5	-20.5	-0.0279
-13.5	-20.0	-0.0267
-13.5	-19.5	-0.0255
-13.5	-19.0	-0.0247
-13.5	-18.5	-0.0243
-13.5	-18.0	-0.0239
-13.5	-17.5	-0.0231
-13.5	-17.0	-0.0219
-13.5	-16.5	-0.0207
-13.5	-16.0	-0.0198
-13.5	-15.5	-0.0191
-13.5	-15.0	-0.0192
-13.5	-14.5	-0.0199
-13.5	-14.0	-0.0209
-13.5	-13.5	-0.0221
-13.5	-13.0	-0.0232
-13.5	-12.5	-0.025
-13.5	-12.0	-0.0281
-13.5	-11.5	-0.0313
-13.5	-11.0	-0.0343
-13.5	-10.5	-0.037
-13.5	-10.0	-0.0388
-13.5	-9.5	-0.0391
-13.5	-9.0	-0.0382
-13.5	-8.5	-0.036
-13.5	-8.0	-0.0335
-13.5	-7.5	-0.0298
-13.5	-7.0	-0.0252
-13.5	-6.5	-0.0215
-13.5	-6.0	-0.0185
-13.5	-5.5	-0.0153
-13.5	-5.0	-0.0116
-13.5	-4.5	-0.008
-13.5	-4.0	-0.0052
-13.5	-3.5	-0.0034
-13.5	-3.0	-0.0017
-13.5	-2.5	-0.0016
-13.5	-2.0	-0.0034
-13.5	-1.5	-0.0065
-13.5	-1.0	-0.0096
-13.5	-0.5	-0.0135
-13.5	0.0	-0.0179
-13.5	0.5	-0.0221
-13.5	1.0	-0.0254
-13.5	1.5	-0.0277
-13.5	2.0	-0.0292
-13.5	2.5	-0.0283
-13.5	3.0	-0.0254
-13.5	3.5	-0.0217
-13.5	4.0	-0.0168
-13.5	4.5	-0.0107
-13.5	5.0	-0.0043
-13.5	5.5	0.002
-13.5	6.0	0.0071
-13.5	6.5	0.0131
-13.5	7.0	0.0199
-13.5	7.5	0.0255
-13.5	8.0	0.0284
-13.5	8.5	0.0301
-13.5	9.0	0.0317
-13.5	9.5	0.0332
-13.5	10.0	0.0344
-13.5	10.5	0.0351
-13.5	11.0	0.0353
-13.5	11.5	0.0353
-13.5	12.0	0.0345
-13.5	12.5	0.0334
-13.5	13.0	0.0323
-13.5	13.5	0.0318
-13.5	14.0	0.0327
-13.5	14.5	0.0352
-13.5	15.0	0.0385
-13.5	15.5	0.0419
-13.5	16.0	0.0461
-13.5	16.5	0.0512
-13.5	17.0	0.0555
-13.5	17.5	0.0577
-13.5	18.0	0.0594
-13.5	18.5	0.0604
-13.5	19.0	0.0604
-13.5	19.5	0.0597
-13.5	20.0	0.0584
-13.5	20.5	0.0566
-13.5	21.0	0.0543
-13.5	21.5	0.0512
-13.5	22.0	0.0472
-13.5	22.5	0.0435
-13.5	23.0	0.0401
-13.5	23.5	0.0371
-13.5	24.0	0.0335
-13.5	24.5	0.0285
-13.5	25.0	0.0236
-13.5	25.5	0.0182
-13.5	26.0	0.0119
-13.5	26.5	0.0055
-13.5	27.0	-0.0021
-13.5	27.5	-0.0093
-13.5	28.0	-0.0157
-13.5	28.5	-0.0212
-13.5	29.0	-0.0258
-13.5	29.5	-0.0295
-13.5	30.0	-0.0308
-13.5	30.5	-0.0284
-13.5	31.0	-0.0245
-13.5	31.5	-0.0203
-13.5	32.0	-0.0162
-13.5	32.5	-0.0132
-13.5	33.0	-0.0116
-13.5	33.5	-0.0116
-13.5	34.0	-0.0122
-13.5	34.5	-0.0129
-13.5	35.0	-0.0137
-13.5	35.5	-0.0146
-13.5	36.0	-0.0153
-13.5	36.5	-0.0154
-13.5	37.0	-0.0154
-13.5	37.5	-0.0153
-13.5	38.0	-0.0135
-13.5	38.5	-0.0094
-13.5	39.0	-0.0046
-13.5	39.5	0.0005
-13.5	40.0	0.0056
-13.0	-40.0	-0.037
-13.0	-39.5	-0.0405
-13.0	-39.0	-0.0426
-13.0	-38.5	-0.044
-13.0	-38.0	-0.0453
-13.0	-37.5	-0.0468
-13.0	-37.0	-0.0483
-13.0	-36.5	-0.0482
-13.0	-36.0	-0.0462
-13.0	-35.5	-0.0431
-13.0	-35.0	-0.0394
-13.0	-34.5	-0.0352
-13.0	-34.0	-0.0306
-13.0	-33.5	-0.0269
-13.0	-33.0	-0.0247
-13.0	-32.5	-0.0227
-13.0	-32.0	-0.0209
-13.0	-31.5	-0.0195
-13.0	-31.0	-0.0193
-13.0	-30.5	-0.0203
-13.0	-30.0	-0.0216
-13.0	-29.5	-0.023
-13.0	-29.0	-0.0243
-13.0	-28.5	-0.0257
-13.0	-28.0	-0.0271
-13.0	-27.5	-0.0277
-13.0	-27.0	-0.028
-13.0	-26.5	-0.0282
-13.0	-26.0	-0.0282
-13.0	-25.5	-0.0283
-13.0	-25.0	-0.0288
-13.0	-24.5	-0.0296
-13.0	-24.0	-0.0306
-13.0	-23.5	-0.0316
-13.0	-23.0	-0.0324
-13.0	-22.5	-0.0324
-13.0	-22.0	-0.0314
-13.0	-21.5	-0.0302
-13.0	-21.0	-0.0289
-13.0	-20.5	-0.0277
-13.0	-20.0	-0.0263
-13.0	-19.5	-0.0254
-13.0	-19.0	-0.0253
-13.0	-18.5	-0.0254
-13.0	-18.0	-0.0254
-13.0	-17.5	-0.0247
-13.0	-17.0	-0.0231
-13.0	-16.5	-0.0214
-13.0	-16.0	-0.0197
-13.0	-15.5	-0.0184
-13.0	-15.0	-0.0182
-13.0	-14.5	-0.0189
-13.0	-14.0	-0.0203
-13.0	-13.5	-0.0219
-13.0	-13.0	-0.0235
-13.0	-12.5	-0.0261
-13.0	-12.0	-0.0299
-13.0	-11.5	-0.0333
-13.0	-11.0	-0.0363
-13.0	-10.5	-0.0389
-13.0	-10.0	-0.0404
-13.0	-9.5	-0.0407
-13.0	-9.0	-0.0395
-13.0	-8.5	-0.0373
-13.0	-8.0	-0.0346
-13.0	-7.5	-0.0306
-13.0	-7.0	-0.0254
-13.0	-6.5	-0.0212
-13.0	-6.0	-0.0178
-13.0	-5.5	-0.0142
-13.0	-5.0	-0.0103
-13.0	-4.5	-0.0067
-13.0	-4.0	-0.0038
-13.0	-3.5	-0.0018
-13.0	-3.0	-0.0002
-13.0	-2.5	0.0001
-13.0	-2.0	-0.0017
-13.0	-1.5	-0.0049
-13.0	-1.0	-0.0083
-13.0	-0.5	-0.0123
-13.0	0.0	-0.0167
-13.0	0.5	-0.0206
-13.0	1.0	-0.0233
-13.0	1.5	-0.0251
-13.0	2.0	-0.0259
-13.0	2.5	-0.0251
-13.0	3.0	-0.0228
-13.0	3.5	-0.0198
-13.0	4.0	-0.0158
-13.0	4.5	-0.0102
-13.0	5.0	-0.0032
-13.0	5.5	0.0034
-13.0	6.0	0.0087
-13.0	6.5	0.0149
-13.0	7.0	0.0215
-13.0	7.5	0.0269
-13.0	8.0	0.0305
-13.0	8.5	0.0327
-13.0	9.0	0.0349
-13.0	9.5	0.037
-13.0	10.0	0.0382
-13.0	10.5	0.0385
-13.0	11.0	0.0385
-13.0	11.5	0.038
-13.0	12.0	0.0369
-13.0	12.5	0.0354
-13.0	13.0	0.0341
-13.0	13.5	0.0332
-13.0	14.0	0.0344
-13.0	14.5	0.0375
-13.0	15.0	0.0411
-13.0	15.5	0.0446
-13.0	16.0	0.0491
-13.0	16.5	0.0542
-13.0	17.0	0.0585
-13.0	17.5	0.0611
-13.0	18.0	0.0631
-13.0	18.5	0.0647
-13.0	19.0	0.0654
-13.0	19.5	0.065
-13.0	20.0	0.0638
-13.0	20.5	0.0623
-13.0	21.0	0.0603
-13.0	21.5	0.0575
-13.0	22.0	0.0533
-13.0	22.5	0.049
-13.0	23.0	0.0447
-13.0	23.5	0.0407
-13.0	24.0	0.0365
-13.0	24.5	0.0318
-13.0	25.0	0.0272
-13.0	25.5	0.023
-13.0	26.0	0.0181
-13.0	26.5	0.012
-13.0	27.0	0.0042
-13.0	27.5	-0.004
-13.0	28.0	-0.0118
-13.0	28.5	-0.0192
-13.0	29.0	-0.0248
-13.0	29.5	-0.0283
-13.0	30.0	-0.0295
-13.0	30.5	-0.0276
-13.0	31.0	-0.0242
-13.0	31.5	-0.0204
-13.0	32.0	-0.0167
-13.0	32.5	-0.0138
-13.0	33.0	-0.0126
-13.0	33.5	-0.0125
-13.0	34.0	-0.0126
-13.0	34.5	-0.0129
-13.0	35.0	-0.0136
-13.0	35.5	-0.0145
-13.0	36.0	-0.0149
-13.0	36.5	-0.015
-13.0	37.0	-0.0151
-13.0	37.5	-0.0151
-13.0	38.0	-0.0131
-13.0	38.5	-0.0088
-13.0	39.0	-0.0038
-13.0	39.5	0.0013
-13.0	40.0	0.0064
-12.5	-40.0	-0.0356
-12.5	-39.5	-0.0378
-12.5	-39.0	-0.039
-12.5	-38.5	-0.0401
-12.5	-38.0	-0.041
-12.5	-37.5	-0.0417
-12.5	-37.0	-0.0425
-12.5	-36.5	-0.043
-12.5	-36.0	-0.0425
-12.5	-35.5	-0.0411
-12.5	-35.0	-0.0389
-12.5	-34.5	-0.0362
-12.5	-34.0	-0.0324
-12.5	-33.5	-0.029
-12.5	-33.0	-0.0267
-12.5	-32.5	-0.0243
-12.5	-32.0	-0.0221
-12.5	-31.5	-0.0203
-12.5	-31.0	-0.0193
-12.5	-30.5	-0.0199
-12.5	-30.0	-0.0209
-12.5	-29.5	-0.0221
-12.5	-29.0	-0.0234
-12.5	-28.5	-0.0248
-12.5	-28.0	-0.0262
-12.5	-27.5	-0.0273
-12.5	-27.0	-0.0281
-12.5	-26.5	-0.0289
-12.5	-26.0	-0.0295
-12.5	-25.5	-0.0299
-12.5	-25.0	-0.0303
-12.5	-24.5	-0.0308
-12.5	-24.0	-0.0315
-12.5	-23.5	-0.0322
-12.5	-23.0	-0.0325
-12.5	-22.5	-0.0321
-12.5	-22.0	-0.0311
-12.5	-21.5	-0.0299
-12.5	-21.0	-0.0286
-12.5	-20.5	-0.0272
-12.5	-20.0	-0.0261
-12.5	-19.5	-0.0261
-12.5	-19.0	-0.0267
-12.5	-18.5	-0.0274
-12.5	-18.0	-0.0279
-12.5	-17.5	-0.0273
-12.5	-17.0	-0.0256
-12.5	-16.5	-0.0233
-12.5	-16.0	-0.0209
-12.5	-15.5	-0.0186
-12.5	-15.0	-0.0174
-12.5	-14.5	-0.0181
-12.5	-14.0	-0.0197
-12.5	-13.5	-0.0216
-12.5	-13.0	-0.0236
-12.5	-12.5	-0.0267
-12.5	-12.0	-0.0305
-12.5	-11.5	-0.0341
-12.5	-11.0	-0.0371
-12.5	-10.5	-0.0401
-12.5	-10.0	-0.0421
-12.5	-9.5	-0.0421
-12.5	-9.0	-0.0402
-12.5	-8.5	-0.0374
-12.5	-8.0	-0.0342
-12.5	-7.5	-0.0298
-12.5	-7.0	-0.0248
-12.5	-6.5	-0.0204
-12.5	-6.0	-0.0169
-12.5	-5.5	-0.0132
-12.5	-5.0	-0.009
-12.5	-4.5	-0.0051
-12.5	-4.0	-0.0023
-12.5	-3.5	-0.0005
-12.5	-3.0	0.0007
-12.5	-2.5	0.0007
-12.5	-2.0	-0.001
-12.5	-1.5	-0.0038
-12.5	-1.0	-0.0069
-12.5	-0.5	-0.0107
-12.5	0.0	-0.0152
-12.5	0.5	-0.0186
-12.5	1.0	-0.0205
-12.5	1.5	-0.0217
-12.5	2.0	-0.022
-12.5	2.5	-0.0213
-12.5	3.0	-0.0196
-12.5	3.5	-0.0172
-12.5	4.0	-0.0142
-12.5	4.5	-0.0087
-12.5	5.0	-0.0014
-12.5	5.5	0.0051
-12.5	6.0	0.0102
-12.5	6.5	0.0161
-12.5	7.0	0.0221
-12.5	7.5	0.0276
-12.5	8.0	0.0319
-12.5	8.5	0.0349
-12.5	9.0	0.0379
-12.5	9.5	0.0405
-12.5	10.0	0.0416
-12.5	10.5	0.0415
-12.5	11.0	0.041
-12.5	11.5	0.04
-12.5	12.0	0.0386
-12.5	12.5	0.0374
-12.5	13.0	0.0362
-12.5	13.5	0.0357
-12.5	14.0	0.0371
-12.5	14.5	0.0402
-12.5	15.0	0.0437
-12.5	15.5	0.0472
-12.5	16.0	0.0515
-12.5	16.5	0.0561
-12.5	17.0	0.0606
-12.5	17.5	0.0642
-12.5	18.0	0.067
-12.5	18.5	0.0697
-12.5	19.0	0.0713
-12.5	19.5	0.0709
-12.5	20.0	0.0693
-12.5	20.5	0.0677
-12.5	21.0	0.0654
-12.5	21.5	0.062
-12.5	22.0	0.058
-12.5	22.5	0.054
-12.5	23.0	0.0498
-12.5	23.5	0.0456
-12.5	24.0	0.0408
-12.5	24.5	0.0359
-12.5	25.0	0.0314
-12.5	25.5	0.0273
-12.5	26.0	0.0232
-12.5	26.5	0.0174
-12.5	27.0	0.0098
-12.5	27.5	0.0013
-12.5	28.0	-0.0077
-12.5	28.5	-0.0165
-12.5	29.0	-0.0237
-12.5	29.5	-0.0274
-12.5	30.0	-0.0283
-12.5	30.5	-0.0268
-12.5	31.0	-0.024
-12.5	31.5	-0.0207
-12.5	32.0	-0.0174
-12.5	32.5	-0.0146
-12.5	33.0	-0.0131
-12.5	33.5	-0.0124
-12.5	34.0	-0.012
-12.5	34.5	-0.012
-12.5	35.0	-0.0124
-12.5	35.5	-0.0131
-12.5	36.0	-0.0137
-12.5	36.5	-0.0142
-12.5	37.0	-0.0143
-12.5	37.5	-0.0142
-12.5	38.0	-0.0121
-12.5	38.5	-0.0079
-12.5	39.0	-0.0031
-12.5	39.5	0.002
-12.5	40.0	0.0068
-12.0	-40.0	-0.0327
-12.0	-39.5	-0.0334
-12.0	-39.0	-0.034
-12.0	-38.5	-0.0346
-12.0	-38.0	-0.0354
-12.0	-37.5	-0.0359
-12.0	-37.0	-0.0363
-12.0	-36.5	-0.0372
-12.0	-36.0	-0.0381
-12.0	-35.5	-0.0382
-12.0	-35.0	-0.0377
-12.0	-34.5	-0.0366
-12.0	-34.0	-0.0342
-12.0	-33.5	-0.0312
-12.0	-33.0	-0.0288
-12.0	-32.5	-0.0263
-12.0	-32.0	-0.0239
-12.0	-31.5	-0.0217
-12.0	-31.0	-0.0202
-12.0	-30.5	-0.0202
-12.0	-30.0	-0.0208
-12.0	-29.5	-0.0216
-12.0	-29.0	-0.0226
-12.0	-28.5	-0.0239
-12.0	-28.0	-0.0254
-12.0	-27.5	-0.0267
-12.0	-27.0	-0.0281
-12.0	-26.5	-0.0295
-12.0	-26.0	-0.0307
-12.0	-25.5	-0.0315
-12.0	-25.0	-0.0318
-12.0	-24.5	-0.0319
-12.0	-24.0	-0.0321
-12.0	-23.5	-0.0323
-12.0	-23.0	-0.0321
-12.0	-22.5	-0.0315
-12.0	-22.0	-0.0305
-12.0	-21.5	-0.029
-12.0	-21.0	-0.0272
-12.0	-20.5	-0.0255
-12.0	-20.0	-0.0251
-12.0	-19.5	-0.0264
-12.0	-19.0	-0.0283
-12.0	-18.5	-0.03
-12.0	-18.0	-0.0308
-12.0	-17.5	-0.0303
-12.0	-17.0	-0.0286
-12.0	-16.5	-0.0259
-12.0	-16.0	-0.0229
-12.0	-15.5	-0.02
-12.0	-15.0	-0.0179
-12.0	-14.5	-0.0179
-12.0	-14.0	-0.0196
-12.0	-13.5	-0.0215
-12.0	-13.0	-0.0237
-12.0	-12.5	-0.0269
-12.0	-12.0	-0.0306
-12.0	-11.5	-0.0343
-12.0	-11.0	-0.0375
-12.0	-10.5	-0.0406
-12.0	-10.0	-0.0428
-12.0	-9.5	-0.0425
-12.0	-9.0	-0.0401
-12.0	-8.5	-0.037
-12.0	-8.0	-0.0334
-12.0	-7.5	-0.0288
-12.0	-7.0	-0.024
-12.0	-6.5	-0.0196
-12.0	-6.0	-0.0161
-12.0	-5.5	-0.0126
-12.0	-5.0	-0.0081
-12.0	-4.5	-0.0038
-12.0	-4.0	-0.0013
-12.0	-3.5	0.0004
-12.0	-3.0	0.0013
-12.0	-2.5	0.0008
-12.0	-2.0	-0.0006
-12.0	-1.5	-0.0029
-12.0	-1.0	-0.0055
-12.0	-0.5	-0.0084
-12.0	0.0	-0.0121
-12.0	0.5	-0.0152
-12.0	1.0	-0.0169
-12.0	1.5	-0.0181
-12.0	2.0	-0.0182
-12.0	2.5	-0.0175
-12.0	3.0	-0.016
-12.0	3.5	-0.0138
-12.0	4.0	-0.0109
-12.0	4.5	-0.0056
-12.0	5.0	0.001
-12.0	5.5	0.0066
-12.0	6.0	0.0111
-12.0	6.5	0.0166
-12.0	7.0	0.0225
-12.0	7.5	0.0282
-12.0	8.0	0.0331
-12.0	8.5	0.0368
-12.0	9.0	0.0404
-12.0	9.5	0.0432
-12.0	10.0	0.0443
-12.0	10.5	0.0439
-12.0	11.0	0.043
-12.0	11.5	0.0417
-12.0	12.0	0.0406
-12.0	12.5	0.0395
-12.0	13.0	0.0387
-12.0	13.5	0.0387
-12.0	14.0	0.0402
-12.0	14.5	0.0429
-12.0	15.0	0.0461
-12.0	15.5	0.0492
-12.0	16.0	0.0531
-12.0	16.5	0.0581
-12.0	17.0	0.0631
-12.0	17.5	0.0672
-12.0	18.0	0.0707
-12.0	18.5	0.0743
-12.0	19.0	0.0767
-12.0	19.5	0.0765
-12.0	20.0	0.0746
-12.0	20.5	0.0726
-12.0	21.0	0.0698
-12.0	21.5	0.0662
-12.0	22.0	0.0625
-12.0	22.5	0.0594
-12.0	23.0	0.0558
-12.0	23.5	0.0519
-12.0	24.0	0.0471
-12.0	24.5	0.0418
-12.0	25.0	0.0368
-12.0	25.5	0.032
-12.0	26.0	0.0278
-12.0	26.5	0.0218
-12.0	27.0	0.0139
-12.0	27.5	0.0057
-12.0	28.0	-0.0032
-12.0	28.5	-0.0124
-12.0	29.0	-0.0206
-12.0	29.5	-0.0257
-12.0	30.0	-0.0268
-12.0	30.5	-0.0259
-12.0	31.0	-0.0239
-12.0	31.5	-0.0214
-12.0	32.0	-0.0187
-12.0	32.5	-0.0156
-12.0	33.0	-0.0134
-12.0	33.5	-0.0117
-12.0	34.0	-0.0106
-12.0	34.5	-0.0101
-12.0	35.0	-0.0101
-12.0	35.5	-0.0107
-12.0	36.0	-0.0118
-12.0	36.5	-0.0127
-12.0	37.0	-0.0132
-12.0	37.5	-0.0127
-12.0	38.0	-0.0107
-12.0	38.5	-0.0069
-12.0	39.0	-0.0024
-12.0	39.5	0.0023
-12.0	40.0	0.0068
-11.5	-40.0	-0.0292
-11.5	-39.5	-0.0287
-11.5	-39.0	-0.0285
-11.5	-38.5	-0.0287
-11.5	-38.0	-0.0291
-11.5	-37.5	-0.0295
-11.5	-37.0	-0.03
-11.5	-36.5	-0.0312
-11.5	-36.0	-0.0331
-11.5	-35.5	-0.0346
-11.5	-35.0	-0.0357
-11.5	-34.5	-0.0362
-11.5	-34.0	-0.0356
-11.5	-33.5	-0.0335
-11.5	-33.0	-0.0309
-11.5	-32.5	-0.0283
-11.5	-32.0	-0.0258
-11.5	-31.5	-0.0235
-11.5	-31.0	-0.0218
-11.5	-30.5	-0.0213
-11.5	-30.0	-0.0214
-11.5	-29.5	-0.0217
-11.5	-29.0	-0.0222
-11.5	-28.5	-0.0231
-11.5	-28.0	-0.0246
-11.5	-27.5	-0.0263
-11.5	-27.0	-0.0281
-11.5	-26.5	-0.03
-11.5	-26.0	-0.0316
-11.5	-25.5	-0.0326
-11.5	-25.0	-0.0328
-11.5	-24.5	-0.0325
-11.5	-24.0	-0.0323
-11.5	-23.5	-0.032
-11.5	-23.0	-0.0317
-11.5	-22.5	-0.0308
-11.5	-22.0	-0.029
-11.5	-21.5	-0.0268
-11.5	-21.0	-0.0244
-11.5	-20.5	-0.0227
-11.5	-20.0	-0.023
-11.5	-19.5	-0.0255
-11.5	-19.0	-0.0287
-11.5	-18.5	-0.0317
-11.5	-18.0	-0.0338
-11.5	-17.5	-0.0336
-11.5	-17.0	-0.0318
-11.5	-16.5	-0.0289
-11.5	-16.0	-0.0257
-11.5	-15.5	-0.0225
-11.5	-15.0	-0.0199
-11.5	-14.5	-0.0191
-11.5	-14.0	-0.0203
-11.5	-13.5	-0.0219
-11.5	-13.0	-0.0239
-11.5	-12.5	-0.027
-11.5	-12.0	-0.0307
-11.5	-11.5	-0.034
-11.5	-11.0	-0.0368
-11.5	-10.5	-0.0395
-11.5	-10.0	-0.0413
-11.5	-9.5	-0.0409
-11.5	-9.0	-0.0385
-11.5	-8.5	-0.0356
-11.5	-8.0	-0.0324
-11.5	-7.5	-0.0279
-11.5	-7.0	-0.0231
-11.5	-6.5	-0.019
-11.5	-6.0	-0.0159
-11.5	-5.5	-0.0127
-11.5	-5.0	-0.0086
-11.5	-4.5	-0.0046
-11.5	-4.0	-0.002
-11.5	-3.5	0.0001
-11.5	-3.0	0.0014
-11.5	-2.5	0.0013
-11.5	-2.0	0.0
-11.5	-1.5	-0.0017
-11.5	-1.0	-0.0035
-11.5	-0.5	-0.0055
-11.5	0.0	-0.0078
-11.5	0.5	-0.0102
-11.5	1.0	-0.012
-11.5	1.5	-0.0135
-11.5	2.0	-0.0144
-11.5	2.5	-0.0138
-11.5	3.0	-0.0119
-11.5	3.5	-0.0095
-11.5	4.0	-0.0065
-11.5	4.5	-0.002
-11.5	5.0	0.0032
-11.5	5.5	0.0078
-11.5	6.0	0.0119
-11.5	6.5	0.017
-11.5	7.0	0.0233
-11.5	7.5	0.0295
-11.5	8.0	0.0345
-11.5	8.5	0.0382
-11.5	9.0	0.0418
-11.5	9.5	0.0445
-11.5	10.0	0.0457
-11.5	10.5	0.0457
-11.5	11.0	0.0449
-11.5	11.5	0.0438
-11.5	12.0	0.0427
-11.5	12.5	0.0417
-11.5	13.0	0.041
-11.5	13.5	0.0413
-11.5	14.0	0.0427
-11.5	14.5	0.045
-11.5	15.0	0.0478
-11.5	15.5	0.0509
-11.5	16.0	0.0552
-11.5	16.5	0.0608
-11.5	17.0	0.066
-11.5	17.5	0.0699
-11.5	18.0	0.0735
-11.5	18.5	0.0771
-11.5	19.0	0.0799
-11.5	19.5	0.08
-11.5	20.0	0.0785
-11.5	20.5	0.0767
-11.5	21.0	0.0741
-11.5	21.5	0.0708
-11.5	22.0	0.0673
-11.5	22.5	0.0643
-11.5	23.0	0.0614
-11.5	23.5	0.0578
-11.5	24.0	0.0535
-11.5	24.5	0.0482
-11.5	25.0	0.0429
-11.5	25.5	0.0374
-11.5	26.0	0.0324
-11.5	26.5	0.0262
-11.5	27.0	0.0182
-11.5	27.5	0.0101
-11.5	28.0	0.0019
-11.5	28.5	-0.0069
-11.5	29.0	-0.0154
-11.5	29.5	-0.0219
-11.5	30.0	-0.024
-11.5	30.5	-0.0244
-11.5	31.0	-0.0239
-11.5	31.5	-0.0224
-11.5	32.0	-0.0199
-11.5	32.5	-0.0165
-11.5	33.0	-0.0134
-11.5	33.5	-0.0107
-11.5	34.0	-0.0087
-11.5	34.5	-0.0077
-11.5	35.0	-0.0074
-11.5	35.5	-0.0081
-11.5	36.0	-0.0095
-11.5	36.5	-0.0108
-11.5	37.0	-0.0117
-11.5	37.5	-0.0111
-11.5	38.0	-0.0092
-11.5	38.5	-0.0059
-11.5	39.0	-0.0018
-11.5	39.5	0.0026
-11.5	40.0	0.0068
-11.0	-40.0	-0.0255
-11.0	-39.5	-0.0244
-11.0	-39.0	-0.0234
-11.0	-38.5	-0.023
-11.0	-38.0	-0.0228
-11.0	-37.5	-0.0228
-11.0	-37.0	-0.0235
-11.0	-36.5	-0.0254
-11.0	-36.0	-0.0282
-11.0	-35.5	-0.0309
-11.0	-35.0	-0.0333
-11.0	-34.5	-0.0354
-11.0	-34.0	-0.0365
-11.0	-33.5	-0.0352
-11.0	-33.0	-0.0327
-11.0	-32.5	-0.03
-11.0	-32.0	-0.0274
-11.0	-31.5	-0.0252
-11.0	-31.0	-0.0236
-11.0	-30.5	-0.0228
-11.0	-30.0	-0.0225
-11.0	-29.5	-0.0225
-11.0	-29.0	-0.0226
-11.0	-28.5	-0.023
-11.0	-28.0	-0.0245
-11.0	-27.5	-0.0263
-11.0	-27.0	-0.0283
-11.0	-26.5	-0.0303
-11.0	-26.0	-0.0321
-11.0	-25.5	-0.0332
-11.0	-25.0	-0.0333
-11.0	-24.5	-0.0328
-11.0	-24.0	-0.0322
-11.0	-23.5	-0.0317
-11.0	-23.0	-0.0311
-11.0	-22.5	-0.0293
-11.0	-22.0	-0.0267
-11.0	-21.5	-0.0239
-11.0	-21.0	-0.0211
-11.0	-20.5	-0.0194
-11.0	-20.0	-0.0203
-11.0	-19.5	-0.0236
-11.0	-19.0	-0.0279
-11.0	-18.5	-0.0322
-11.0	-18.0	-0.0359
-11.0	-17.5	-0.0371
-11.0	-17.0	-0.0352
-11.0	-16.5	-0.032
-11.0	-16.0	-0.0286
-11.0	-15.5	-0.0253
-11.0	-15.0	-0.0226
-11.0	-14.5	-0.0212
-11.0	-14.0	-0.0217
-11.0	-13.5	-0.0229
-11.0	-13.0	-0.0244
-11.0	-12.5	-0.027
-11.0	-12.0	-0.0302
-11.0	-11.5	-0.033
-11.0	-11.0	-0.0352
-11.0	-10.5	-0.0372
-11.0	-10.0	-0.0383
-11.0	-9.5	-0.0377
-11.0	-9.0	-0.0359
-11.0	-8.5	-0.0335
-11.0	-8.0	-0.0308
-11.0	-7.5	-0.0269
-11.0	-7.0	-0.0225
-11.0	-6.5	-0.0189
-11.0	-6.0	-0.0165
-11.0	-5.5	-0.0137
-11.0	-5.0	-0.0103
-11.0	-4.5	-0.0069
-11.0	-4.0	-0.0039
-11.0	-3.5	-0.0014
-11.0	-3.0	0.0009
-11.0	-2.5	0.0019
-11.0	-2.0	0.0016
-11.0	-1.5	0.0005
-11.0	-1.0	-0.0007
-11.0	-0.5	-0.0022
-11.0	0.0	-0.0036
-11.0	0.5	-0.0052
-11.0	1.0	-0.0069
-11.0	1.5	-0.0085
-11.0	2.0	-0.0098
-11.0	2.5	-0.0095
-11.0	3.0	-0.0076
-11.0	3.5	-0.0053
-11.0	4.0	-0.0025
-11.0	4.5	0.0013
-11.0	5.0	0.0052
-11.0	5.5	0.0093
-11.0	6.0	0.013
-11.0	6.5	0.0178
-11.0	7.0	0.0246
-11.0	7.5	0.0313
-11.0	8.0	0.036
-11.0	8.5	0.0395
-11.0	9.0	0.0427
-11.0	9.5	0.0452
-11.0	10.0	0.0468
-11.0	10.5	0.0472
-11.0	11.0	0.0469
-11.0	11.5	0.0461
-11.0	12.0	0.0449
-11.0	12.5	0.0439
-11.0	13.0	0.0432
-11.0	13.5	0.0435
-11.0	14.0	0.0447
-11.0	14.5	0.0471
-11.0	15.0	0.0501
-11.0	15.5	0.0533
-11.0	16.0	0.0581
-11.0	16.5	0.064
-11.0	17.0	0.0689
-11.0	17.5	0.0725
-11.0	18.0	0.0758
-11.0	18.5	0.0789
-11.0	19.0	0.0811
-11.0	19.5	0.0822
-11.0	20.0	0.0817
-11.0	20.5	0.0808
-11.0	21.0	0.079
-11.0	21.5	0.0759
-11.0	22.0	0.0724
-11.0	22.5	0.0691
-11.0	23.0	0.0661
-11.0	23.5	0.0624
-11.0	24.0	0.058
-11.0	24.5	0.0533
-11.0	25.0	0.0484
-11.0	25.5	0.043
-11.0	26.0	0.0378
-11.0	26.5	0.0309
-11.0	27.0	0.0227
-11.0	27.5	0.0145
-11.0	28.0	0.0066
-11.0	28.5	-0.0014
-11.0	29.0	-0.0097
-11.0	29.5	-0.017
-11.0	30.0	-0.0204
-11.0	30.5	-0.0224
-11.0	31.0	-0.0236
-11.0	31.5	-0.0233
-11.0	32.0	-0.0207
-11.0	32.5	-0.0169
-11.0	33.0	-0.0131
-11.0	33.5	-0.0096
-11.0	34.0	-0.0067
-11.0	34.5	-0.005
-11.0	35.0	-0.0048
-11.0	35.5	-0.0056
-11.0	36.0	-0.0072
-11.0	36.5	-0.0088
-11.0	37.0	-0.0099
-11.0	37.5	-0.0094
-11.0	38.0	-0.0075
-11.0	38.5	-0.0047
-11.0	39.0	-0.0012
-11.0	39.5	0.0029
-11.0	40.0	0.0068
-10.5	-40.0	-0.0218
-10.5	-39.5	-0.0206
-10.5	-39.0	-0.0189
-10.5	-38.5	-0.0175
-10.5	-38.0	-0.0166
-10.5	-37.5	-0.0159
-10.5	-37.0	-0.0167
-10.5	-36.5	-0.0199
-10.5	-36.0	-0.0239
-10.5	-35.5	-0.0277
-10.5	-35.0	-0.0312
-10.5	-34.5	-0.0344
-10.5	-34.0	-0.0366
-10.5	-33.5	-0.0359
-10.5	-33.0	-0.0338
-10.5	-32.5	-0.0313
-10.5	-32.0	-0.0289
-10.5	-31.5	-0.0269
-10.5	-31.0	-0.0254
-10.5	-30.5	-0.0246
-10.5	-30.0	-0.0242
-10.5	-29.5	-0.0239
-10.5	-29.0	-0.0237
-10.5	-28.5	-0.0238
-10.5	-28.0	-0.0251
-10.5	-27.5	-0.0268
-10.5	-27.0	-0.0289
-10.5	-26.5	-0.0309
-10.5	-26.0	-0.0326
-10.5	-25.5	-0.0336
-10.5	-25.0	-0.0337
-10.5	-24.5	-0.0329
-10.5	-24.0	-0.032
-10.5	-23.5	-0.0311
-10.5	-23.0	-0.0297
-10.5	-22.5	-0.0269
-10.5	-22.0	-0.0238
-10.5	-21.5	-0.0205
-10.5	-21.0	-0.0174
-10.5	-20.5	-0.016
-10.5	-20.0	-0.0173
-10.5	-19.5	-0.0209
-10.5	-19.0	-0.0258
-10.5	-18.5	-0.0309
-10.5	-18.0	-0.0358
-10.5	-17.5	-0.0385
-10.5	-17.0	-0.0375
-10.5	-16.5	-0.0344
-10.5	-16.0	-0.0312
-10.5	-15.5	-0.0279
-10.5	-15.0	-0.0251
-10.5	-14.5	-0.0235
-10.5	-14.0	-0.0234
-10.5	-13.5	-0.0243
-10.5	-13.0	-0.0253
-10.5	-12.5	-0.027
-10.5	-12.0	-0.0293
-10.5	-11.5	-0.0313
-10.5	-11.0	-0.033
-10.5	-10.5	-0.0344
-10.5	-10.0	-0.0348
-10.5	-9.5	-0.0343
-10.5	-9.0	-0.0329
-10.5	-8.5	-0.0309
-10.5	-8.0	-0.0286
-10.5	-7.5	-0.0254
-10.5	-7.0	-0.022
-10.5	-6.5	-0.0196
-10.5	-6.0	-0.0178
-10.5	-5.5	-0.0156
-10.5	-5.0	-0.0127
-10.5	-4.5	-0.0095
-10.5	-4.0	-0.0063
-10.5	-3.5	-0.0034
-10.5	-3.0	-0.0004
-10.5	-2.5	0.0023
-10.5	-2.0	0.0036
-10.5	-1.5	0.0032
-10.5	-1.0	0.0026
-10.5	-0.5	0.0017
-10.5	0.0	0.0004
-10.5	0.5	-0.001
-10.5	1.0	-0.0022
-10.5	1.5	-0.0034
-10.5	2.0	-0.0042
-10.5	2.5	-0.0041
-10.5	3.0	-0.0031
-10.5	3.5	-0.0016
-10.5	4.0	0.0004
-10.5	4.5	0.0035
-10.5	5.0	0.0072
-10.5	5.5	0.0113
-10.5	6.0	0.0153
-10.5	6.5	0.0203
-10.5	7.0	0.027
-10.5	7.5	0.0333
-10.5	8.0	0.0374
-10.5	8.5	0.0405
-10.5	9.0	0.0435
-10.5	9.5	0.046
-10.5	10.0	0.0478
-10.5	10.5	0.0485
-10.5	11.0	0.0485
-10.5	11.5	0.0481
-10.5	12.0	0.0471
-10.5	12.5	0.046
-10.5	13.0	0.0451
-10.5	13.5	0.0452
-10.5	14.0	0.0469
-10.5	14.5	0.0496
-10.5	15.0	0.0527
-10.5	15.5	0.0563
-10.5	16.0	0.0612
-10.5	16.5	0.0667
-10.5	17.0	0.071
-10.5	17.5	0.0743
-10.5	18.0	0.0774
-10.5	18.5	0.0802
-10.5	19.0	0.0825
-10.5	19.5	0.0839
-10.5	20.0	0.0844
-10.5	20.5	0.0843
-10.5	21.0	0.0835
-10.5	21.5	0.081
-10.5	22.0	0.0775
-10.5	22.5	0.0739
-10.5	23.0	0.0704
-10.5	23.5	0.0663
-10.5	24.0	0.0616
-10.5	24.5	0.0576
-10.5	25.0	0.0538
-10.5	25.5	0.0492
-10.5	26.0	0.0442
-10.5	26.5	0.0369
-10.5	27.0	0.0282
-10.5	27.5	0.0194
-10.5	28.0	0.0111
-10.5	28.5	0.0033
-10.5	29.0	-0.0048
-10.5	29.5	-0.0123
-10.5	30.0	-0.017
-10.5	30.5	-0.0204
-10.5	31.0	-0.0231
-10.5	31.5	-0.0239
-10.5	32.0	-0.0213
-10.5	32.5	-0.0171
-10.5	33.0	-0.0127
-10.5	33.5	-0.0085
-10.5	34.0	-0.0048
-10.5	34.5	-0.0025
-10.5	35.0	-0.0022
-10.5	35.5	-0.0032
-10.5	36.0	-0.0049
-10.5	36.5	-0.0066
-10.5	37.0	-0.0079
-10.5	37.5	-0.0076
-10.5	38.0	-0.0058
-10.5	38.5	-0.0036
-10.5	39.0	-0.0006
-10.5	39.5	0.003
-10.5	40.0	0.0065
-10.0	-40.0	-0.0182
-10.0	-39.5	-0.0169
-10.0	-39.0	-0.0152
-10.0	-38.5	-0.0131
-10.0	-38.0	-0.0115
-10.0	-37.5	-0.0104
-10.0	-37.0	-0.0114
-10.0	-36.5	-0.0156
-10.0	-36.0	-0.0204
-10.0	-35.5	-0.0254
-10.0	-35.0	-0.03
-10.0	-34.5	-0.0337
-10.0	-34.0	-0.036
-10.0	-33.5	-0.0359
-10.0	-33.0	-0.0343
-10.0	-32.5	-0.0324
-10.0	-32.0	-0.0305
-10.0	-31.5	-0.0288
-10.0	-31.0	-0.0274
-10.0	-30.5	-0.0267
-10.0	-30.0	-0.0262
-10.0	-29.5	-0.0258
-10.0	-29.0	-0.0254
-10.0	-28.5	-0.0254
-10.0	-28.0	-0.0262
-10.0	-27.5	-0.0278
-10.0	-27.0	-0.0297
-10.0	-26.5	-0.0316
-10.0	-26.0	-0.0333
-10.0	-25.5	-0.0343
-10.0	-25.0	-0.0339
-10.0	-24.5	-0.0327
-10.0	-24.0	-0.0314
-10.0	-23.5	-0.0302
-10.0	-23.0	-0.0279
-10.0	-22.5	-0.0244
-10.0	-22.0	-0.021
-10.0	-21.5	-0.0174
-10.0	-21.0	-0.0141
-10.0	-20.5	-0.0124
-10.0	-20.0	-0.0137
-10.0	-19.5	-0.0174
-10.0	-19.0	-0.0224
-10.0	-18.5	-0.0277
-10.0	-18.0	-0.0328
-10.0	-17.5	-0.0367
-10.0	-17.0	-0.037
-10.0	-16.5	-0.0349
-10.0	-16.0	-0.0324
-10.0	-15.5	-0.0298
-10.0	-15.0	-0.0272
-10.0	-14.5	-0.0256
-10.0	-14.0	-0.0254
-10.0	-13.5	-0.0258
-10.0	-13.0	-0.0264
-10.0	-12.5	-0.0269
-10.0	-12.0	-0.0279
-10.0	-11.5	-0.029
-10.0	-11.0	-0.0302
-10.0	-10.5	-0.0312
-10.0	-10.0	-0.0315
-10.0	-9.5	-0.0309
-10.0	-9.0	-0.0294
-10.0	-8.5	-0.0275
-10.0	-8.0	-0.0255
-10.0	-7.5	-0.0235
-10.0	-7.0	-0.0216
-10.0	-6.5	-0.0205
-10.0	-6.0	-0.0195
-10.0	-5.5	-0.018
-10.0	-5.0	-0.0154
-10.0	-4.5	-0.012
-10.0	-4.0	-0.0085
-10.0	-3.5	-0.0053
-10.0	-3.0	-0.0018
-10.0	-2.5	0.0021
-10.0	-2.0	0.0049
-10.0	-1.5	0.0057
-10.0	-1.0	0.0058
-10.0	-0.5	0.0055
-10.0	0.0	0.0045
-10.0	0.5	0.0033
-10.0	1.0	0.0022
-10.0	1.5	0.0014
-10.0	2.0	0.0009
-10.0	2.5	0.0008
-10.0	3.0	0.0009
-10.0	3.5	0.0016
-10.0	4.0	0.003
-10.0	4.5	0.0056
-10.0	5.0	0.0097
-10.0	5.5	0.0145
-10.0	6.0	0.0187
-10.0	6.5	0.0238
-10.0	7.0	0.0297
-10.0	7.5	0.0349
-10.0	8.0	0.0387
-10.0	8.5	0.0417
-10.0	9.0	0.0446
-10.0	9.5	0.0473
-10.0	10.0	0.0491
-10.0	10.5	0.0496
-10.0	11.0	0.0495
-10.0	11.5	0.0493
-10.0	12.0	0.0486
-10.0	12.5	0.0477
-10.0	13.0	0.0469
-10.0	13.5	0.0474
-10.0	14.0	0.0494
-10.0	14.5	0.0523
-10.0	15.0	0.0552
-10.0	15.5	0.0588
-10.0	16.0	0.0634
-10.0	16.5	0.068
-10.0	17.0	0.0719
-10.0	17.5	0.0751
-10.0	18.0	0.0784
-10.0	18.5	0.0818
-10.0	19.0	0.0843
-10.0	19.5	0.0856
-10.0	20.0	0.0861
-10.0	20.5	0.0864
-10.0	21.0	0.0861
-10.0	21.5	0.0845
-10.0	22.0	0.0815
-10.0	22.5	0.0779
-10.0	23.0	0.0742
-10.0	23.5	0.0698
-10.0	24.0	0.0653
-10.0	24.5	0.0613
-10.0	25.0	0.0581
-10.0	25.5	0.0546
-10.0	26.0	0.0497
-10.0	26.5	0.043
-10.0	27.0	0.0344
-10.0	27.5	0.0251
-10.0	28.0	0.0159
-10.0	28.5	0.0076
-10.0	29.0	-0.0007
-10.0	29.5	-0.0083
-10.0	30.0	-0.0139
-10.0	30.5	-0.0185
-10.0	31.0	-0.0224
-10.0	31.5	-0.0241
-10.0	32.0	-0.022
-10.0	32.5	-0.0174
-10.0	33.0	-0.0124
-10.0	33.5	-0.0075
-10.0	34.0	-0.0031
-10.0	34.5	-0.0001
-10.0	35.0	0.0004
-10.0	35.5	-0.0008
-10.0	36.0	-0.0023
-10.0	36.5	-0.0041
-10.0	37.0	-0.0055
-10.0	37.5	-0.0057
-10.0	38.0	-0.0045
-10.0	38.5	-0.0026
-10.0	39.0	-0.0003
-10.0	39.5	0.0027
-10.0	40.0	0.0056
-9.5	-40.0	-0.0137
-9.5	-39.5	-0.013
-9.5	-39.0	-0.0119
-9.5	-38.5	-0.0103
-9.5	-38.0	-0.0086
-9.5	-37.5	-0.0075
-9.5	-37.0	-0.009
-9.5	-36.5	-0.0132
-9.5	-36.0	-0.0185
-9.5	-35.5	-0.0242
-9.5	-35.0	-0.0295
-9.5	-34.5	-0.0333
-9.5	-34.0	-0.0354
-9.5	-33.5	-0.0355
-9.5	-33.0	-0.0348
-9.5	-32.5	-0.0339
-9.5	-32.0	-0.0328
-9.5	-31.5	-0.0318
-9.5	-31.0	-0.0306
-9.5	-30.5	-0.0295
-9.5	-30.0	-0.0284
-9.5	-29.5	-0.0277
-9.5	-29.0	-0.0271
-9.5	-28.5	-0.027
-9.5	-28.0	-0.0276
-9.5	-27.5	-0.029
-9.5	-27.0	-0.0306
-9.5	-26.5	-0.0323
-9.5	-26.0	-0.0339
-9.5	-25.5	-0.0345
-9.5	-25.0	-0.0337
-9.5	-24.5	-0.0322
-9.5	-24.0	-0.0306
-9.5	-23.5	-0.0291
-9.5	-23.0	-0.0263
-9.5	-22.5	-0.0226
-9.5	-22.0	-0.0189
-9.5	-21.5	-0.015
-9.5	-21.0	-0.0112
-9.5	-20.5	-0.0085
-9.5	-20.0	-0.0095
-9.5	-19.5	-0.0134
-9.5	-19.0	-0.0184
-9.5	-18.5	-0.0234
-9.5	-18.0	-0.0283
-9.5	-17.5	-0.0323
-9.5	-17.0	-0.0341
-9.5	-16.5	-0.0333
-9.5	-16.0	-0.032
-9.5	-15.5	-0.0306
-9.5	-15.0	-0.0289
-9.5	-14.5	-0.0274
-9.5	-14.0	-0.027
-9.5	-13.5	-0.0271
-9.5	-13.0	-0.0272
-9.5	-12.5	-0.0269
-9.5	-12.0	-0.0266
-9.5	-11.5	-0.0269
-9.5	-11.0	-0.0275
-9.5	-10.5	-0.0281
-9.5	-10.0	-0.0282
-9.5	-9.5	-0.0274
-9.5	-9.0	-0.0259
-9.5	-8.5	-0.0243
-9.5	-8.0	-0.0228
-9.5	-7.5	-0.0217
-9.5	-7.0	-0.0214
-9.5	-6.5	-0.0212
-9.5	-6.0	-0.0208
-9.5	-5.5	-0.0201
-9.5	-5.0	-0.018
-9.5	-4.5	-0.0143
-9.5	-4.0	-0.0105
-9.5	-3.5	-0.007
-9.5	-3.0	-0.0031
-9.5	-2.5	0.0014
-9.5	-2.0	0.0051
-9.5	-1.5	0.0072
-9.5	-1.0	0.0082
-9.5	-0.5	0.0088
-9.5	0.0	0.0087
-9.5	0.5	0.0079
-9.5	1.0	0.0069
-9.5	1.5	0.0059
-9.5	2.0	0.0052
-9.5	2.5	0.0047
-9.5	3.0	0.0046
-9.5	3.5	0.0051
-9.5	4.0	0.006
-9.5	4.5	0.0085
-9.5	5.0	0.013
-9.5	5.5	0.018
-9.5	6.0	0.0222
-9.5	6.5	0.0271
-9.5	7.0	0.0321
-9.5	7.5	0.0366
-9.5	8.0	0.0404
-9.5	8.5	0.0432
-9.5	9.0	0.0463
-9.5	9.5	0.0489
-9.5	10.0	0.0505
-9.5	10.5	0.0506
-9.5	11.0	0.0504
-9.5	11.5	0.0501
-9.5	12.0	0.0497
-9.5	12.5	0.0492
-9.5	13.0	0.0488
-9.5	13.5	0.0497
-9.5	14.0	0.0518
-9.5	14.5	0.0546
-9.5	15.0	0.0573
-9.5	15.5	0.0607
-9.5	16.0	0.0647
-9.5	16.5	0.0688
-9.5	17.0	0.0726
-9.5	17.5	0.0758
-9.5	18.0	0.0793
-9.5	18.5	0.0832
-9.5	19.0	0.086
-9.5	19.5	0.0871
-9.5	20.0	0.0877
-9.5	20.5	0.0878
-9.5	21.0	0.0873
-9.5	21.5	0.0862
-9.5	22.0	0.084
-9.5	22.5	0.0811
-9.5	23.0	0.078
-9.5	23.5	0.0737
-9.5	24.0	0.069
-9.5	24.5	0.065
-9.5	25.0	0.0615
-9.5	25.5	0.0581
-9.5	26.0	0.0533
-9.5	26.5	0.0472
-9.5	27.0	0.0394
-9.5	27.5	0.0305
-9.5	28.0	0.021
-9.5	28.5	0.0117
-9.5	29.0	0.003
-9.5	29.5	-0.0047
-9.5	30.0	-0.0109
-9.5	30.5	-0.0166
-9.5	31.0	-0.0217
-9.5	31.5	-0.0243
-9.5	32.0	-0.0226
-9.5	32.5	-0.0175
-9.5	33.0	-0.012
-9.5	33.5	-0.0065
-9.5	34.0	-0.0015
-9.5	34.5	0.002
-9.5	35.0	0.0027
-9.5	35.5	0.0014
-9.5	36.0	0.0001
-9.5	36.5	-0.0014
-9.5	37.0	-0.003
-9.5	37.5	-0.0038
-9.5	38.0	-0.0034
-9.5	38.5	-0.0021
-9.5	39.0	-0.0002
-9.5	39.5	0.002
-9.5	40.0	0.0041
-9.0	-40.0	-0.0082
-9.0	-39.5	-0.0085
-9.0	-39.0	-0.0085
-9.0	-38.5	-0.0081
-9.0	-38.0	-0.0074
-9.0	-37.5	-0.0073
-9.0	-37.0	-0.009
-9.0	-36.5	-0.0127
-9.0	-36.0	-0.0178
-9.0	-35.5	-0.0235
-9.0	-35.0	-0.0289
-9.0	-34.5	-0.033
-9.0	-34.0	-0.0349
-9.0	-33.5	-0.0353
-9.0	-33.0	-0.0356
-9.0	-32.5	-0.0357
-9.0	-32.0	-0.0355
-9.0	-31.5	-0.0352
-9.0	-31.0	-0.0343
-9.0	-30.5	-0.0328
-9.0	-30.0	-0.0311
-9.0	-29.5	-0.0296
-9.0	-29.0	-0.0285
-9.0	-28.5	-0.0284
-9.0	-28.0	-0.029
-9.0	-27.5	-0.0301
-9.0	-27.0	-0.0314
-9.0	-26.5	-0.0327
-9.0	-26.0	-0.0338
-9.0	-25.5	-0.0339
-9.0	-25.0	-0.0327
-9.0	-24.5	-0.0312
-9.0	-24.0	-0.0296
-9.0	-23.5	-0.0279
-9.0	-23.0	-0.025
-9.0	-22.5	-0.0213
-9.0	-22.0	-0.0172
-9.0	-21.5	-0.0128
-9.0	-21.0	-0.0083
-9.0	-20.5	-0.0046
-9.0	-20.0	-0.0048
-9.0	-19.5	-0.0089
-9.0	-19.0	-0.014
-9.0	-18.5	-0.0189
-9.0	-18.0	-0.0236
-9.0	-17.5	-0.0275
-9.0	-17.0	-0.03
-9.0	-16.5	-0.0304
-9.0	-16.0	-0.03
-9.0	-15.5	-0.0294
-9.0	-15.0	-0.0287
-9.0	-14.5	-0.0281
-9.0	-14.0	-0.0279
-9.0	-13.5	-0.0278
-9.0	-13.0	-0.0275
-9.0	-12.5	-0.0267
-9.0	-12.0	-0.0259
-9.0	-11.5	-0.0254
-9.0	-11.0	-0.0253
-9.0	-10.5	-0.0251
-9.0	-10.0	-0.0246
-9.0	-9.5	-0.0236
-9.0	-9.0	-0.0226
-9.0	-8.5	-0.0216
-9.0	-8.0	-0.0207
-9.0	-7.5	-0.0205
-9.0	-7.0	-0.0207
-9.0	-6.5	-0.021
-9.0	-6.0	-0.0213
-9.0	-5.5	-0.0215
-9.0	-5.0	-0.0198
-9.0	-4.5	-0.0162
-9.0	-4.0	-0.0121
-9.0	-3.5	-0.0083
-9.0	-3.0	-0.0041
-9.0	-2.5	0.0004
-9.0	-2.0	0.0045
-9.0	-1.5	0.0075
-9.0	-1.0	0.0095
-9.0	-0.5	0.0114
-9.0	0.0	0.0126
-9.0	0.5	0.0124
-9.0	1.0	0.0112
-9.0	1.5	0.0099
-9.0	2.0	0.0087
-9.0	2.5	0.008
-9.0	3.0	0.0079
-9.0	3.5	0.0085
-9.0	4.0	0.0095
-9.0	4.5	0.0123
-9.0	5.0	0.0167
-9.0	5.5	0.0212
-9.0	6.0	0.025
-9.0	6.5	0.0294
-9.0	7.0	0.0341
-9.0	7.5	0.0387
-9.0	8.0	0.0428
-9.0	8.5	0.0458
-9.0	9.0	0.0489
-9.0	9.5	0.0513
-9.0	10.0	0.0522
-9.0	10.5	0.0519
-9.0	11.0	0.0514
-9.0	11.5	0.0509
-9.0	12.0	0.0505
-9.0	12.5	0.0501
-9.0	13.0	0.0503
-9.0	13.5	0.0514
-9.0	14.0	0.0534
-9.0	14.5	0.0559
-9.0	15.0	0.0584
-9.0	15.5	0.0615
-9.0	16.0	0.0656
-9.0	16.5	0.0697
-9.0	17.0	0.0733
-9.0	17.5	0.0762
-9.0	18.0	0.0799
-9.0	18.5	0.0837
-9.0	19.0	0.0866
-9.0	19.5	0.0879
-9.0	20.0	0.0888
-9.0	20.5	0.089
-9.0	21.0	0.0883
-9.0	21.5	0.0871
-9.0	22.0	0.0856
-9.0	22.5	0.0836
-9.0	23.0	0.081
-9.0	23.5	0.0773
-9.0	24.0	0.0728
-9.0	24.5	0.0686
-9.0	25.0	0.0647
-9.0	25.5	0.0609
-9.0	26.0	0.0556
-9.0	26.5	0.0492
-9.0	27.0	0.0428
-9.0	27.5	0.0352
-9.0	28.0	0.0266
-9.0	28.5	0.0172
-9.0	29.0	0.0073
-9.0	29.5	-0.0017
-9.0	30.0	-0.009
-9.0	30.5	-0.0155
-9.0	31.0	-0.0215
-9.0	31.5	-0.0248
-9.0	32.0	-0.023
-9.0	32.5	-0.0175
-9.0	33.0	-0.0115
-9.0	33.5	-0.0057
-9.0	34.0	-0.0004
-9.0	34.5	0.0034
-9.0	35.0	0.0044
-9.0	35.5	0.0034
-9.0	36.0	0.0022
-9.0	36.5	0.0007
-9.0	37.0	-0.0011
-9.0	37.5	-0.0025
-9.0	38.0	-0.0027
-9.0	38.5	-0.002
-9.0	39.0	-0.0007
-9.0	39.5	0.001
-9.0	40.0	0.0025
-8.5	-40.0	-0.0032
-8.5	-39.5	-0.0043
-8.5	-39.0	-0.0053
-8.5	-38.5	-0.0062
-8.5	-38.0	-0.0069
-8.5	-37.5	-0.0075
-8.5	-37.0	-0.0094
-8.5	-36.5	-0.0127
-8.5	-36.0	-0.0174
-8.5	-35.5	-0.023
-8.5	-35.0	-0.0284
-8.5	-34.5	-0.0326
-8.5	-34.0	-0.0347
-8.5	-33.5	-0.0356
-8.5	-33.0	-0.0365
-8.5	-32.5	-0.0374
-8.5	-32.0	-0.0381
-8.5	-31.5	-0.0383
-8.5	-31.0	-0.0376
-8.5	-30.5	-0.0359
-8.5	-30.0	-0.0338
-8.5	-29.5	-0.0316
-8.5	-29.0	-0.0301
-8.5	-28.5	-0.0298
-8.5	-28.0	-0.0302
-8.5	-27.5	-0.0309
-8.5	-27.0	-0.0317
-8.5	-26.5	-0.0325
-8.5	-26.0	-0.033
-8.5	-25.5	-0.0325
-8.5	-25.0	-0.0313
-8.5	-24.5	-0.0298
-8.5	-24.0	-0.0283
-8.5	-23.5	-0.0267
-8.5	-23.0	-0.0239
-8.5	-22.5	-0.02
-8.5	-22.0	-0.0155
-8.5	-21.5	-0.0107
-8.5	-21.0	-0.0059
-8.5	-20.5	-0.0018
-8.5	-20.0	-0.0012
-8.5	-19.5	-0.0048
-8.5	-19.0	-0.0096
-8.5	-18.5	-0.0144
-8.5	-18.0	-0.0191
-8.5	-17.5	-0.0229
-8.5	-17.0	-0.0252
-8.5	-16.5	-0.0258
-8.5	-16.0	-0.0259
-8.5	-15.5	-0.026
-8.5	-15.0	-0.0263
-8.5	-14.5	-0.0268
-8.5	-14.0	-0.0271
-8.5	-13.5	-0.0272
-8.5	-13.0	-0.0271
-8.5	-12.5	-0.0264
-8.5	-12.0	-0.0254
-8.5	-11.5	-0.0243
-8.5	-11.0	-0.0232
-8.5	-10.5	-0.0221
-8.5	-10.0	-0.0209
-8.5	-9.5	-0.02
-8.5	-9.0	-0.0197
-8.5	-8.5	-0.0195
-8.5	-8.0	-0.0194
-8.5	-7.5	-0.0194
-8.5	-7.0	-0.0196
-8.5	-6.5	-0.0201
-8.5	-6.0	-0.0209
-8.5	-5.5	-0.0214
-8.5	-5.0	-0.0204
-8.5	-4.5	-0.0173
-8.5	-4.0	-0.0134
-8.5	-3.5	-0.0094
-8.5	-3.0	-0.005
-8.5	-2.5	-0.0004
-8.5	-2.0	0.0038
-8.5	-1.5	0.0073
-8.5	-1.0	0.0099
-8.5	-0.5	0.0127
-8.5	0.0	0.015
-8.5	0.5	0.0155
-8.5	1.0	0.0145
-8.5	1.5	0.0132
-8.5	2.0	0.0119
-8.5	2.5	0.0112
-8.5	3.0	0.0113
-8.5	3.5	0.0119
-8.5	4.0	0.0131
-8.5	4.5	0.0158
-8.5	5.0	0.0195
-8.5	5.5	0.0233
-8.5	6.0	0.0269
-8.5	6.5	0.0313
-8.5	7.0	0.0364
-8.5	7.5	0.0416
-8.5	8.0	0.0459
-8.5	8.5	0.0489
-8.5	9.0	0.0517
-8.5	9.5	0.0535
-8.5	10.0	0.054
-8.5	10.5	0.0537
-8.5	11.0	0.0528
-8.5	11.5	0.0519
-8.5	12.0	0.0512
-8.5	12.5	0.0508
-8.5	13.0	0.0512
-8.5	13.5	0.0523
-8.5	14.0	0.054
-8.5	14.5	0.0563
-8.5	15.0	0.0587
-8.5	15.5	0.0619
-8.5	16.0	0.0663
-8.5	16.5	0.0705
-8.5	17.0	0.0736
-8.5	17.5	0.0763
-8.5	18.0	0.0797
-8.5	18.5	0.0833
-8.5	19.0	0.086
-8.5	19.5	0.0878
-8.5	20.0	0.0891
-8.5	20.5	0.0899
-8.5	21.0	0.0893
-8.5	21.5	0.0879
-8.5	22.0	0.0863
-8.5	22.5	0.0848
-8.5	23.0	0.0826
-8.5	23.5	0.0796
-8.5	24.0	0.0757
-8.5	24.5	0.0717
-8.5	25.0	0.0675
-8.5	25.5	0.0632
-8.5	26.0	0.0576
-8.5	26.5	0.0511
-8.5	27.0	0.0452
-8.5	27.5	0.0391
-8.5	28.0	0.0319
-8.5	28.5	0.0232
-8.5	29.0	0.0118
-8.5	29.5	0.0017
-8.5	30.0	-0.0074
-8.5	30.5	-0.0155
-8.5	31.0	-0.0219
-8.5	31.5	-0.0252
-8.5	32.0	-0.0233
-8.5	32.5	-0.0176
-8.5	33.0	-0.0113
-8.5	33.5	-0.0053
-8.5	34.0	0.0
-8.5	34.5	0.0039
-8.5	35.0	0.0052
-8.5	35.5	0.0046
-8.5	36.0	0.0037
-8.5	36.5	0.0021
-8.5	37.0	-0.0
-8.5	37.5	-0.0017
-8.5	38.0	-0.0023
-8.5	38.5	-0.0023
-8.5	39.0	-0.0017
-8.5	39.5	-0.0005
-8.5	40.0	0.0009
-8.0	-40.0	0.0005
-8.0	-39.5	-0.001
-8.0	-39.0	-0.0028
-8.0	-38.5	-0.0047
-8.0	-38.0	-0.0062
-8.0	-37.5	-0.0075
-8.0	-37.0	-0.0096
-8.0	-36.5	-0.0131
-8.0	-36.0	-0.0177
-8.0	-35.5	-0.023
-8.0	-35.0	-0.0281
-8.0	-34.5	-0.0322
-8.0	-34.0	-0.0348
-8.0	-33.5	-0.0362
-8.0	-33.0	-0.0378
-8.0	-32.5	-0.0393
-8.0	-32.0	-0.0403
-8.0	-31.5	-0.0406
-8.0	-31.0	-0.04
-8.0	-30.5	-0.0384
-8.0	-30.0	-0.0362
-8.0	-29.5	-0.034
-8.0	-29.0	-0.0321
-8.0	-28.5	-0.0312
-8.0	-28.0	-0.0312
-8.0	-27.5	-0.0313
-8.0	-27.0	-0.0316
-8.0	-26.5	-0.0318
-8.0	-26.0	-0.0317
-8.0	-25.5	-0.0309
-8.0	-25.0	-0.0297
-8.0	-24.5	-0.0284
-8.0	-24.0	-0.0269
-8.0	-23.5	-0.0254
-8.0	-23.0	-0.0227
-8.0	-22.5	-0.0184
-8.0	-22.0	-0.0138
-8.0	-21.5	-0.009
-8.0	-21.0	-0.0045
-8.0	-20.5	-0.0011
-8.0	-20.0	-0.0001
-8.0	-19.5	-0.0023
-8.0	-19.0	-0.0062
-8.0	-18.5	-0.0103
-8.0	-18.0	-0.0145
-8.0	-17.5	-0.0183
-8.0	-17.0	-0.0202
-8.0	-16.5	-0.0208
-8.0	-16.0	-0.0212
-8.0	-15.5	-0.0217
-8.0	-15.0	-0.0228
-8.0	-14.5	-0.0241
-8.0	-14.0	-0.0249
-8.0	-13.5	-0.0255
-8.0	-13.0	-0.0259
-8.0	-12.5	-0.0257
-8.0	-12.0	-0.0243
-8.0	-11.5	-0.0228
-8.0	-11.0	-0.0213
-8.0	-10.5	-0.0198
-8.0	-10.0	-0.0184
-8.0	-9.5	-0.0176
-8.0	-9.0	-0.0174
-8.0	-8.5	-0.0175
-8.0	-8.0	-0.0177
-8.0	-7.5	-0.018
-8.0	-7.0	-0.0185
-8.0	-6.5	-0.0192
-8.0	-6.0	-0.0201
-8.0	-5.5	-0.0206
-8.0	-5.0	-0.0198
-8.0	-4.5	-0.0175
-8.0	-4.0	-0.0141
-8.0	-3.5	-0.0103
-8.0	-3.0	-0.0061
-8.0	-2.5	-0.0011
-8.0	-2.0	0.0039
-8.0	-1.5	0.0075
-8.0	-1.0	0.0104
-8.0	-0.5	0.0134
-8.0	0.0	0.0159
-8.0	0.5	0.0172
-8.0	1.0	0.017
-8.0	1.5	0.0161
-8.0	2.0	0.0151
-8.0	2.5	0.0145
-8.0	3.0	0.0147
-8.0	3.5	0.0151
-8.0	4.0	0.0162
-8.0	4.5	0.0185
-8.0	5.0	0.0215
-8.0	5.5	0.0251
-8.0	6.0	0.0288
-8.0	6.5	0.0331
-8.0	7.0	0.0391
-8.0	7.5	0.0451
-8.0	8.0	0.0491
-8.0	8.5	0.0518
-8.0	9.0	0.0541
-8.0	9.5	0.0554
-8.0	10.0	0.0559
-8.0	10.5	0.0557
-8.0	11.0	0.0547
-8.0	11.5	0.0533
-8.0	12.0	0.0521
-8.0	12.5	0.0515
-8.0	13.0	0.0518
-8.0	13.5	0.0528
-8.0	14.0	0.0544
-8.0	14.5	0.0565
-8.0	15.0	0.0588
-8.0	15.5	0.0618
-8.0	16.0	0.0661
-8.0	16.5	0.0704
-8.0	17.0	0.0733
-8.0	17.5	0.076
-8.0	18.0	0.079
-8.0	18.5	0.0821
-8.0	19.0	0.0848
-8.0	19.5	0.0868
-8.0	20.0	0.0885
-8.0	20.5	0.0897
-8.0	21.0	0.0896
-8.0	21.5	0.0884
-8.0	22.0	0.0869
-8.0	22.5	0.0853
-8.0	23.0	0.0829
-8.0	23.5	0.0802
-8.0	24.0	0.0771
-8.0	24.5	0.0735
-8.0	25.0	0.0696
-8.0	25.5	0.0654
-8.0	26.0	0.0595
-8.0	26.5	0.053
-8.0	27.0	0.0472
-8.0	27.5	0.0416
-8.0	28.0	0.0359
-8.0	28.5	0.0274
-8.0	29.0	0.0155
-8.0	29.5	0.0046
-8.0	30.0	-0.006
-8.0	30.5	-0.0157
-8.0	31.0	-0.0226
-8.0	31.5	-0.0255
-8.0	32.0	-0.0233
-8.0	32.5	-0.0176
-8.0	33.0	-0.0114
-8.0	33.5	-0.0053
-8.0	34.0	-0.0
-8.0	34.5	0.0037
-8.0	35.0	0.0053
-8.0	35.5	0.0052
-8.0	36.0	0.0046
-8.0	36.5	0.0032
-8.0	37.0	0.001
-8.0	37.5	-0.001
-8.0	38.0	-0.0021
-8.0	38.5	-0.0027
-8.0	39.0	-0.0027
-8.0	39.5	-0.0018
-8.0	40.0	-0.0006
-7.5	-40.0	0.0033
-7.5	-39.5	0.0018
-7.5	-39.0	-0.0004
-7.5	-38.5	-0.0028
-7.5	-38.0	-0.005
-7.5	-37.5	-0.007
-7.5	-37.0	-0.0098
-7.5	-36.5	-0.0138
-7.5	-36.0	-0.0187
-7.5	-35.5	-0.0236
-7.5	-35.0	-0.0282
-7.5	-34.5	-0.0321
-7.5	-34.0	-0.035
-7.5	-33.5	-0.037
-7.5	-33.0	-0.0392
-7.5	-32.5	-0.0412
-7.5	-32.0	-0.0427
-7.5	-31.5	-0.043
-7.5	-31.0	-0.0422
-7.5	-30.5	-0.0406
-7.5	-30.0	-0.0385
-7.5	-29.5	-0.0363
-7.5	-29.0	-0.0342
-7.5	-28.5	-0.0326
-7.5	-28.0	-0.032
-7.5	-27.5	-0.0315
-7.5	-27.0	-0.0311
-7.5	-26.5	-0.0307
-7.5	-26.0	-0.0302
-7.5	-25.5	-0.0293
-7.5	-25.0	-0.0282
-7.5	-24.5	-0.0267
-7.5	-24.0	-0.0251
-7.5	-23.5	-0.0236
-7.5	-23.0	-0.0209
-7.5	-22.5	-0.0167
-7.5	-22.0	-0.0123
-7.5	-21.5	-0.0077
-7.5	-21.0	-0.0036
-7.5	-20.5	-0.001
-7.5	-20.0	-0.0001
-7.5	-19.5	-0.001
-7.5	-19.0	-0.0036
-7.5	-18.5	-0.0065
-7.5	-18.0	-0.0096
-7.5	-17.5	-0.0127
-7.5	-17.0	-0.0146
-7.5	-16.5	-0.0158
-7.5	-16.0	-0.0168
-7.5	-15.5	-0.018
-7.5	-15.0	-0.0196
-7.5	-14.5	-0.0211
-7.5	-14.0	-0.0221
-7.5	-13.5	-0.0229
-7.5	-13.0	-0.0236
-7.5	-12.5	-0.0234
-7.5	-12.0	-0.0222
-7.5	-11.5	-0.0206
-7.5	-11.0	-0.019
-7.5	-10.5	-0.0174
-7.5	-10.0	-0.0161
-7.5	-9.5	-0.0153
-7.5	-9.0	-0.0151
-7.5	-8.5	-0.0154
-7.5	-8.0	-0.0158
-7.5	-7.5	-0.0165
-7.5	-7.0	-0.0176
-7.5	-6.5	-0.0186
-7.5	-6.0	-0.0196
-7.5	-5.5	-0.02
-7.5	-5.0	-0.0192
-7.5	-4.5	-0.0173
-7.5	-4.0	-0.0144
-7.5	-3.5	-0.0107
-7.5	-3.0	-0.0067
-7.5	-2.5	-0.0011
-7.5	-2.0	0.0044
-7.5	-1.5	0.008
-7.5	-1.0	0.0111
-7.5	-0.5	0.0141
-7.5	0.0	0.0166
-7.5	0.5	0.0182
-7.5	1.0	0.0187
-7.5	1.5	0.0184
-7.5	2.0	0.018
-7.5	2.5	0.0177
-7.5	3.0	0.0177
-7.5	3.5	0.0178
-7.5	4.0	0.0184
-7.5	4.5	0.0202
-7.5	5.0	0.0231
-7.5	5.5	0.0269
-7.5	6.0	0.0315
-7.5	6.5	0.037
-7.5	7.0	0.0438
-7.5	7.5	0.0498
-7.5	8.0	0.0529
-7.5	8.5	0.0545
-7.5	9.0	0.056
-7.5	9.5	0.0573
-7.5	10.0	0.0578
-7.5	10.5	0.0575
-7.5	11.0	0.0564
-7.5	11.5	0.0548
-7.5	12.0	0.0531
-7.5	12.5	0.052
-7.5	13.0	0.0521
-7.5	13.5	0.053
-7.5	14.0	0.0544
-7.5	14.5	0.0561
-7.5	15.0	0.0581
-7.5	15.5	0.0607
-7.5	16.0	0.0643
-7.5	16.5	0.0682
-7.5	17.0	0.0714
-7.5	17.5	0.0742
-7.5	18.0	0.0776
-7.5	18.5	0.0807
-7.5	19.0	0.0832
-7.5	19.5	0.0851
-7.5	20.0	0.0869
-7.5	20.5	0.0885
-7.5	21.0	0.089
-7.5	21.5	0.0882
-7.5	22.0	0.0871
-7.5	22.5	0.0856
-7.5	23.0	0.0832
-7.5	23.5	0.0802
-7.5	24.0	0.0773
-7.5	24.5	0.0744
-7.5	25.0	0.0711
-7.5	25.5	0.0671
-7.5	26.0	0.0613
-7.5	26.5	0.0551
-7.5	27.0	0.0493
-7.5	27.5	0.0437
-7.5	28.0	0.0376
-7.5	28.5	0.029
-7.5	29.0	0.0177
-7.5	29.5	0.0063
-7.5	30.0	-0.0051
-7.5	30.5	-0.0157
-7.5	31.0	-0.0233
-7.5	31.5	-0.0256
-7.5	32.0	-0.0232
-7.5	32.5	-0.0177
-7.5	33.0	-0.0116
-7.5	33.5	-0.0055
-7.5	34.0	0.0
-7.5	34.5	0.0035
-7.5	35.0	0.005
-7.5	35.5	0.0054
-7.5	36.0	0.0054
-7.5	36.5	0.0042
-7.5	37.0	0.002
-7.5	37.5	-0.0002
-7.5	38.0	-0.0019
-7.5	38.5	-0.0031
-7.5	39.0	-0.0036
-7.5	39.5	-0.0031
-7.5	40.0	-0.0019
-7.0	-40.0	0.0063
-7.0	-39.5	0.0047
-7.0	-39.0	0.002
-7.0	-38.5	-0.0009
-7.0	-38.0	-0.0038
-7.0	-37.5	-0.0063
-7.0	-37.0	-0.0101
-7.0	-36.5	-0.0144
-7.0	-36.0	-0.0195
-7.0	-35.5	-0.0244
-7.0	-35.0	-0.0285
-7.0	-34.5	-0.0321
-7.0	-34.0	-0.0353
-7.0	-33.5	-0.0378
-7.0	-33.0	-0.0404
-7.0	-32.5	-0.0429
-7.0	-32.0	-0.0449
-7.0	-31.5	-0.0456
-7.0	-31.0	-0.0444
-7.0	-30.5	-0.0424
-7.0	-30.0	-0.0402
