lon	lat	Vs(Km/s)
54.5	-34.5	4.27051
54.5	-34.0	4.26641
54.5	-33.5	4.2652
54.5	-33.0	4.2726999999999995
54.5	-32.5	4.28585
54.5	-32.0	4.30021
54.5	-31.5	4.31395
54.5	-31.0	4.32592
54.5	-30.5	4.3381300000000005
54.5	-30.0	4.348739999999999
54.5	-29.5	4.3582399999999994
54.5	-29.0	4.3689
54.5	-28.5	4.3791199999999995
54.5	-28.0	4.38658
54.5	-27.5	4.38721
54.5	-27.0	4.3824
54.5	-26.5	4.37508
54.5	-26.0	4.36725
54.5	-25.5	4.35915
54.5	-25.0	4.34663
54.5	-24.5	4.331600000000001
54.5	-24.0	4.3176499999999995
54.5	-23.5	4.303439999999999
54.5	-23.0	4.290649999999999
54.5	-22.5	4.28216
54.5	-22.0	4.27959
54.5	-21.5	4.28143
54.5	-21.0	4.28627
54.5	-20.5	4.29141
54.5	-20.0	4.2985500000000005
54.5	-19.5	4.3106599999999995
54.5	-19.0	4.324949999999999
54.5	-18.5	4.33791
54.5	-18.0	4.35023
54.5	-17.5	4.36109
54.5	-17.0	4.3695
54.5	-16.5	4.3753400000000005
54.5	-16.0	4.37729
54.5	-15.5	4.37708
54.5	-15.0	4.37626
54.5	-14.5	4.37276
54.5	-14.0	4.3658
54.5	-13.5	4.35808
54.5	-13.0	4.35006
54.5	-12.5	4.34112
54.5	-12.0	4.33281
54.5	-11.5	4.3275500000000005
54.5	-11.0	4.32628
54.5	-10.5	4.32693
54.5	-10.0	4.32535
54.5	-9.5	4.31764
54.5	-9.0	4.305689999999999
54.5	-8.5	4.29357
54.5	-8.0	4.28187
54.5	-7.5	4.27209
54.5	-7.0	4.2665
54.5	-6.5	4.26425
54.5	-6.0	4.26576
54.5	-5.5	4.269229999999999
54.5	-5.0	4.27333
54.5	-4.5	4.27954
54.5	-4.0	4.28534
54.5	-3.5	4.28997
54.5	-3.0	4.295
54.5	-2.5	4.29959
54.5	-2.0	4.3033
54.5	-1.5	4.30651
54.5	-1.0	4.308979999999999
54.5	-0.5	4.314310000000001
54.5	0.0	4.32515
54.5	0.5	4.33998
54.5	1.0	4.353470000000001
54.5	1.5	4.36532
54.5	2.0	4.3791899999999995
54.5	2.5	4.39171
54.5	3.0	4.4003000000000005
54.5	3.5	4.40489
54.5	4.0	4.4079
54.5	4.5	4.41182
54.5	5.0	4.41907
54.5	5.5	4.42913
54.5	6.0	4.43948
54.5	6.5	4.45221
54.5	7.0	4.47189
54.5	7.5	4.493390000000001
54.5	8.0	4.51378
54.5	8.5	4.5315
54.5	9.0	4.54587
54.5	9.5	4.5533
54.5	10.0	4.551069999999999
54.5	10.5	4.53911
54.5	11.0	4.522819999999999
54.5	11.5	4.49747
54.5	12.0	4.451029999999999
54.5	12.5	4.39659
54.5	13.0	4.34746
54.5	13.5	4.30328
54.5	14.0	4.26156
54.5	14.5	4.23176
54.5	15.0	4.22431
54.5	15.5	4.23433
54.5	16.0	4.24835
54.5	16.5	4.27072
54.5	17.0	4.31816
54.5	17.5	4.37774
54.5	18.0	4.4333
54.5	18.5	4.486260000000001
54.5	19.0	4.542
54.5	19.5	4.597270000000001
54.5	20.0	4.636220000000001
54.5	20.5	4.65534
54.5	21.0	4.67055
54.5	21.5	4.68307
54.5	22.0	4.68874
54.5	22.5	4.68266
54.5	23.0	4.67103
54.5	23.5	4.65822
54.5	24.0	4.64655
54.5	24.5	4.638649999999999
54.5	25.0	4.638979999999999
54.5	25.5	4.64926
54.5	26.0	4.6619399999999995
54.5	26.5	4.67281
54.5	27.0	4.67878
54.5	27.5	4.67449
54.5	28.0	4.66281
54.5	28.5	4.64633
54.5	29.0	4.62775
54.5	29.5	4.6091999999999995
54.5	30.0	4.59252
54.5	30.5	4.5656300000000005
54.5	31.0	4.52958
54.5	31.5	4.48773
54.5	32.0	4.444100000000001
54.5	32.5	4.405729999999999
54.5	33.0	4.3775699999999995
54.5	33.5	4.3688199999999995
54.5	34.0	4.37826
54.5	34.5	4.39339
54.5	35.0	4.40847
54.5	35.5	4.42392
54.5	36.0	4.45053
54.5	36.5	4.48841
54.5	37.0	4.5361
54.5	37.5	4.58985
54.5	38.0	4.6442
54.5	38.5	4.69057
54.5	39.0	4.71408
54.5	39.5	4.7136000000000005
54.5	40.0	4.7008
55.0	-40.0	4.30006
55.0	-39.5	4.30546
55.0	-39.0	4.3085
55.0	-38.5	4.309699999999999
55.0	-38.0	4.3101
55.0	-37.5	4.3107
55.0	-37.0	4.31071
55.0	-36.5	4.30882
55.0	-36.0	4.3008500000000005
55.0	-35.5	4.28986
55.0	-35.0	4.27937
55.0	-34.5	4.27129
55.0	-34.0	4.26525
55.0	-33.5	4.26241
55.0	-33.0	4.268260000000001
55.0	-32.5	4.280930000000001
55.0	-32.0	4.29554
55.0	-31.5	4.30997
55.0	-31.0	4.32256
55.0	-30.5	4.3342600000000004
55.0	-30.0	4.34424
55.0	-29.5	4.35289
55.0	-29.0	4.3632100000000005
55.0	-28.5	4.37357
55.0	-28.0	4.38189
55.0	-27.5	4.38275
55.0	-27.0	4.37767
55.0	-26.5	4.37082
55.0	-26.0	4.36351
55.0	-25.5	4.355510000000001
55.0	-25.0	4.34279
55.0	-24.5	4.3278
55.0	-24.0	4.31253
55.0	-23.5	4.29657
55.0	-23.0	4.28104
55.0	-22.5	4.269229999999999
55.0	-22.0	4.26539
55.0	-21.5	4.26812
55.0	-21.0	4.27341
55.0	-20.5	4.278569999999999
55.0	-20.0	4.28712
55.0	-19.5	4.30054
55.0	-19.0	4.31678
55.0	-18.5	4.331840000000001
55.0	-18.0	4.34679
55.0	-17.5	4.3608199999999995
55.0	-17.0	4.37077
55.0	-16.5	4.37395
55.0	-16.0	4.37333
55.0	-15.5	4.37185
55.0	-15.0	4.37056
55.0	-14.5	4.36933
55.0	-14.0	4.36599
55.0	-13.5	4.36144
55.0	-13.0	4.356199999999999
55.0	-12.5	4.35001
55.0	-12.0	4.34312
55.0	-11.5	4.3376
55.0	-11.0	4.33546
55.0	-10.5	4.33495
55.0	-10.0	4.33158
55.0	-9.5	4.32369
55.0	-9.0	4.3109399999999996
55.0	-8.5	4.29817
55.0	-8.0	4.28586
55.0	-7.5	4.27494
55.0	-7.0	4.26647
55.0	-6.5	4.26183
55.0	-6.0	4.26103
55.0	-5.5	4.26157
55.0	-5.0	4.2621199999999995
55.0	-4.5	4.263649999999999
55.0	-4.0	4.26732
55.0	-3.5	4.27203
55.0	-3.0	4.27736
55.0	-2.5	4.283810000000001
55.0	-2.0	4.28897
55.0	-1.5	4.292979999999999
55.0	-1.0	4.29707
55.0	-0.5	4.30531
55.0	0.0	4.31826
55.0	0.5	4.33416
55.0	1.0	4.34908
55.0	1.5	4.36188
55.0	2.0	4.37637
55.0	2.5	4.38905
55.0	3.0	4.39543
55.0	3.5	4.396739999999999
55.0	4.0	4.39768
55.0	4.5	4.40012
55.0	5.0	4.4036
55.0	5.5	4.40987
55.0	6.0	4.4180600000000005
55.0	6.5	4.42795
55.0	7.0	4.44783
55.0	7.5	4.472510000000001
55.0	8.0	4.49396
55.0	8.5	4.512569999999999
55.0	9.0	4.5271300000000005
55.0	9.5	4.53535
55.0	10.0	4.535310000000001
55.0	10.5	4.5247399999999995
55.0	11.0	4.50784
55.0	11.5	4.48427
55.0	12.0	4.440270000000001
55.0	12.5	4.39073
55.0	13.0	4.3491800000000005
55.0	13.5	4.3104700000000005
55.0	14.0	4.27616
55.0	14.5	4.2539
55.0	15.0	4.24535
55.0	15.5	4.25204
55.0	16.0	4.2641599999999995
55.0	16.5	4.28287
55.0	17.0	4.327529999999999
55.0	17.5	4.3831999999999995
55.0	18.0	4.43394
55.0	18.5	4.48234
55.0	19.0	4.53245
55.0	19.5	4.57993
55.0	20.0	4.61688
55.0	20.5	4.639729999999999
55.0	21.0	4.65779
55.0	21.5	4.6745600000000005
55.0	22.0	4.681310000000001
55.0	22.5	4.67145
55.0	23.0	4.65537
55.0	23.5	4.6384099999999995
55.0	24.0	4.62333
55.0	24.5	4.61424
55.0	25.0	4.61532
55.0	25.5	4.6276
55.0	26.0	4.64442
55.0	26.5	4.65982
55.0	27.0	4.67142
55.0	27.5	4.67066
55.0	28.0	4.65838
55.0	28.5	4.64187
55.0	29.0	4.623819999999999
55.0	29.5	4.60574
55.0	30.0	4.58807
55.0	30.5	4.55881
55.0	31.0	4.52125
55.0	31.5	4.47765
55.0	32.0	4.43339
55.0	32.5	4.39619
55.0	33.0	4.3742
55.0	33.5	4.36665
55.0	34.0	4.37621
55.0	34.5	4.39166
55.0	35.0	4.4075299999999995
55.0	35.5	4.42558
55.0	36.0	4.45644
55.0	36.5	4.49517
55.0	37.0	4.5396
55.0	37.5	4.591399999999999
55.0	38.0	4.645359999999999
55.0	38.5	4.69365
55.0	39.0	4.7187600000000005
55.0	39.5	4.71292
55.0	40.0	4.69813
55.5	-40.0	4.31531
55.5	-39.5	4.3224
55.5	-39.0	4.32626
55.5	-38.5	4.32696
55.5	-38.0	4.3273
55.5	-37.5	4.32868
55.5	-37.0	4.329149999999999
55.5	-36.5	4.32588
55.5	-36.0	4.31383
55.5	-35.5	4.29933
55.5	-35.0	4.285159999999999
55.5	-34.5	4.27317
55.5	-34.0	4.265770000000001
55.5	-33.5	4.263439999999999
55.5	-33.0	4.26776
55.5	-32.5	4.27896
55.5	-32.0	4.2925699999999996
55.5	-31.5	4.30638
55.5	-31.0	4.3188699999999995
55.5	-30.5	4.330220000000001
55.5	-30.0	4.33971
55.5	-29.5	4.34828
55.5	-29.0	4.35771
55.5	-28.5	4.36749
55.5	-28.0	4.37538
55.5	-27.5	4.37689
55.5	-27.0	4.37238
55.5	-26.5	4.3666
55.5	-26.0	4.3605
55.5	-25.5	4.3534
55.5	-25.0	4.34141
55.5	-24.5	4.32586
55.5	-24.0	4.30828
55.5	-23.5	4.28933
55.5	-23.0	4.27081
55.5	-22.5	4.25525
55.5	-22.0	4.249689999999999
55.5	-21.5	4.25446
55.5	-21.0	4.26084
55.5	-20.5	4.26687
55.5	-20.0	4.27704
55.5	-19.5	4.29206
55.5	-19.0	4.30832
55.5	-18.5	4.32386
55.5	-18.0	4.33976
55.5	-17.5	4.35511
55.5	-17.0	4.36621
55.5	-16.5	4.36858
55.5	-16.0	4.36658
55.5	-15.5	4.36376
55.5	-15.0	4.361149999999999
55.5	-14.5	4.35972
55.5	-14.0	4.35948
55.5	-13.5	4.35884
55.5	-13.0	4.35715
55.5	-12.5	4.354430000000001
55.5	-12.0	4.3499
55.5	-11.5	4.345140000000001
55.5	-11.0	4.34241
55.5	-10.5	4.339930000000001
55.5	-10.0	4.33385
55.5	-9.5	4.324050000000001
55.5	-9.0	4.31254
55.5	-8.5	4.30081
55.5	-8.0	4.28883
55.5	-7.5	4.27571
55.5	-7.0	4.26297
55.5	-6.5	4.25559
55.5	-6.0	4.252890000000001
55.5	-5.5	4.251
55.5	-5.0	4.24985
55.5	-4.5	4.2496599999999995
55.5	-4.0	4.25113
55.5	-3.5	4.25512
55.5	-3.0	4.26009
55.5	-2.5	4.26776
55.5	-2.0	4.27597
55.5	-1.5	4.28192
55.5	-1.0	4.28771
55.5	-0.5	4.298109999999999
55.5	0.0	4.312729999999999
55.5	0.5	4.32863
55.5	1.0	4.34345
55.5	1.5	4.35618
55.5	2.0	4.3687
55.5	2.5	4.37985
55.5	3.0	4.3855
55.5	3.5	4.3853
55.5	4.0	4.38543
55.5	4.5	4.3871400000000005
55.5	5.0	4.39046
55.5	5.5	4.394729999999999
55.5	6.0	4.39963
55.5	6.5	4.40756
55.5	7.0	4.42457
55.5	7.5	4.44972
55.5	8.0	4.473529999999999
55.5	8.5	4.494800000000001
55.5	9.0	4.51217
55.5	9.5	4.52023
55.5	10.0	4.51636
55.5	10.5	4.5025900000000005
55.5	11.0	4.4839899999999995
55.5	11.5	4.46006
55.5	12.0	4.4246300000000005
55.5	12.5	4.38612
55.5	13.0	4.35433
55.5	13.5	4.32328
55.5	14.0	4.29504
55.5	14.5	4.27505
55.5	15.0	4.26811
55.5	15.5	4.27437
55.5	16.0	4.28494
55.5	16.5	4.30246
55.5	17.0	4.338
55.5	17.5	4.38349
55.5	18.0	4.42779
55.5	18.5	4.47172
55.5	19.0	4.51614
55.5	19.5	4.560020000000001
55.5	20.0	4.59551
55.5	20.5	4.61654
55.5	21.0	4.63447
55.5	21.5	4.6510299999999996
55.5	22.0	4.656020000000001
55.5	22.5	4.6466
55.5	23.0	4.630199999999999
55.5	23.5	4.6135399999999995
55.5	24.0	4.59747
55.5	24.5	4.5888800000000005
55.5	25.0	4.59145
55.5	25.5	4.60317
55.5	26.0	4.61994
55.5	26.5	4.636939999999999
55.5	27.0	4.652229999999999
55.5	27.5	4.6578100000000004
55.5	28.0	4.64956
55.5	28.5	4.63721
55.5	29.0	4.62176
55.5	29.5	4.605729999999999
55.5	30.0	4.58646
55.5	30.5	4.55792
55.5	31.0	4.51963
55.5	31.5	4.47596
55.5	32.0	4.43161
55.5	32.5	4.39285
55.5	33.0	4.37003
55.5	33.5	4.365600000000001
55.5	34.0	4.37571
55.5	34.5	4.39051
55.5	35.0	4.4061
55.5	35.5	4.42573
55.5	36.0	4.46027
55.5	36.5	4.49899
55.5	37.0	4.53934
55.5	37.5	4.58591
55.5	38.0	4.63603
55.5	38.5	4.68267
55.5	39.0	4.7076
55.5	39.5	4.704
55.5	40.0	4.69359
56.0	-40.0	4.32955
56.0	-39.5	4.33854
56.0	-39.0	4.34414
56.0	-38.5	4.34438
56.0	-38.0	4.34436
56.0	-37.5	4.34475
56.0	-37.0	4.34443
56.0	-36.5	4.33875
56.0	-36.0	4.32584
56.0	-35.5	4.30933
56.0	-35.0	4.29224
56.0	-34.5	4.27693
56.0	-34.0	4.266430000000001
56.0	-33.5	4.2646999999999995
56.0	-33.0	4.26842
56.0	-32.5	4.27799
56.0	-32.0	4.29057
56.0	-31.5	4.3036
56.0	-31.0	4.31523
56.0	-30.5	4.32627
56.0	-30.0	4.33507
56.0	-29.5	4.344180000000001
56.0	-29.0	4.353479999999999
56.0	-28.5	4.3623400000000006
56.0	-28.0	4.36911
56.0	-27.5	4.370939999999999
56.0	-27.0	4.367649999999999
56.0	-26.5	4.36317
56.0	-26.0	4.3585
56.0	-25.5	4.352600000000001
56.0	-25.0	4.3405
56.0	-24.5	4.322430000000001
56.0	-24.0	4.30284
56.0	-23.5	4.28205
56.0	-23.0	4.26171
56.0	-22.5	4.24422
56.0	-22.0	4.23751
56.0	-21.5	4.24266
56.0	-21.0	4.24951
56.0	-20.5	4.25668
56.0	-20.0	4.2679
56.0	-19.5	4.28294
56.0	-19.0	4.2988800000000005
56.0	-18.5	4.31333
56.0	-18.0	4.328390000000001
56.0	-17.5	4.3427299999999995
56.0	-17.0	4.3533100000000005
56.0	-16.5	4.3564099999999994
56.0	-16.0	4.3548
56.0	-15.5	4.35298
56.0	-15.0	4.35091
56.0	-14.5	4.34938
56.0	-14.0	4.34909
56.0	-13.5	4.3499
56.0	-13.0	4.35052
56.0	-12.5	4.35028
56.0	-12.0	4.34867
56.0	-11.5	4.34637
56.0	-11.0	4.34412
56.0	-10.5	4.34129
56.0	-10.0	4.3341400000000005
56.0	-9.5	4.32378
56.0	-9.0	4.31158
56.0	-8.5	4.29978
56.0	-8.0	4.28796
56.0	-7.5	4.27252
56.0	-7.0	4.25687
56.0	-6.5	4.24698
56.0	-6.0	4.24249
56.0	-5.5	4.23864
56.0	-5.0	4.23644
56.0	-4.5	4.23646
56.0	-4.0	4.23929
56.0	-3.5	4.24407
56.0	-3.0	4.24983
56.0	-2.5	4.25806
56.0	-2.0	4.26808
56.0	-1.5	4.27619
56.0	-1.0	4.28237
56.0	-0.5	4.292560000000001
56.0	0.0	4.3068
56.0	0.5	4.3225
56.0	1.0	4.33667
56.0	1.5	4.34835
56.0	2.0	4.3586800000000006
56.0	2.5	4.36681
56.0	3.0	4.37111
56.0	3.5	4.37113
56.0	4.0	4.37082
56.0	4.5	4.37288
56.0	5.0	4.3762
56.0	5.5	4.3806400000000005
56.0	6.0	4.38612
56.0	6.5	4.39563
56.0	7.0	4.41069
56.0	7.5	4.43288
56.0	8.0	4.456390000000001
56.0	8.5	4.4775
56.0	9.0	4.49632
56.0	9.5	4.5025
56.0	10.0	4.49353
56.0	10.5	4.4767
56.0	11.0	4.45706
56.0	11.5	4.4332
56.0	12.0	4.40847
56.0	12.5	4.38346
56.0	13.0	4.3598
56.0	13.5	4.33578
56.0	14.0	4.3117
56.0	14.5	4.29493
56.0	15.0	4.29037
56.0	15.5	4.29654
56.0	16.0	4.30572
56.0	16.5	4.32242
56.0	17.0	4.3463400000000005
56.0	17.5	4.3791199999999995
56.0	18.0	4.41643
56.0	18.5	4.455310000000001
56.0	19.0	4.49788
56.0	19.5	4.53981
56.0	20.0	4.57116
56.0	20.5	4.58968
56.0	21.0	4.606199999999999
56.0	21.5	4.61954
56.0	22.0	4.62218
56.0	22.5	4.614310000000001
56.0	23.0	4.59946
56.0	23.5	4.58432
56.0	24.0	4.57003
56.0	24.5	4.56193
56.0	25.0	4.563899999999999
56.0	25.5	4.57579
56.0	26.0	4.591270000000001
56.0	26.5	4.60785
56.0	27.0	4.6243
56.0	27.5	4.6355900000000005
56.0	28.0	4.63487
56.0	28.5	4.628729999999999
56.0	29.0	4.61954
56.0	29.5	4.60775
56.0	30.0	4.587560000000001
56.0	30.5	4.558470000000001
56.0	31.0	4.52136
56.0	31.5	4.47765
56.0	32.0	4.43175
56.0	32.5	4.3904
56.0	33.0	4.36559
56.0	33.5	4.36455
56.0	34.0	4.37434
56.0	34.5	4.38693
56.0	35.0	4.40096
56.0	35.5	4.41974
56.0	36.0	4.45464
56.0	36.5	4.49311
56.0	37.0	4.533399999999999
56.0	37.5	4.5741700000000005
56.0	38.0	4.61724
56.0	38.5	4.65815
56.0	39.0	4.68179
56.0	39.5	4.6853
56.0	40.0	4.68229
56.5	-40.0	4.34003
56.5	-39.5	4.3507
56.5	-39.0	4.3573
56.5	-38.5	4.35886
56.5	-38.0	4.35896
56.5	-37.5	4.35844
56.5	-37.0	4.35634
56.5	-36.5	4.34925
56.5	-36.0	4.33658
56.5	-35.5	4.3192200000000005
56.5	-35.0	4.30024
56.5	-34.5	4.2823400000000005
56.5	-34.0	4.26876
56.5	-33.5	4.265479999999999
56.5	-33.0	4.27051
56.5	-32.5	4.27963
56.5	-32.0	4.29125
56.5	-31.5	4.30309
56.5	-31.0	4.3133
56.5	-30.5	4.322970000000001
56.5	-30.0	4.33104
56.5	-29.5	4.34027
56.5	-29.0	4.34971
56.5	-28.5	4.3582600000000005
56.5	-28.0	4.36434
56.5	-27.5	4.3662399999999995
56.5	-27.0	4.363989999999999
56.5	-26.5	4.36036
56.5	-26.0	4.3562899999999996
56.5	-25.5	4.351520000000001
56.5	-25.0	4.33776
56.5	-24.5	4.317729999999999
56.5	-24.0	4.29663
56.5	-23.5	4.27547
56.5	-23.0	4.255529999999999
56.5	-22.5	4.2394099999999995
56.5	-22.0	4.23252
56.5	-21.5	4.23557
56.5	-21.0	4.24152
56.5	-20.5	4.2478
56.5	-20.0	4.25793
56.5	-19.5	4.27256
56.5	-19.0	4.28771
56.5	-18.5	4.30162
56.5	-18.0	4.31554
56.5	-17.5	4.3283000000000005
56.5	-17.0	4.33719
56.5	-16.5	4.3408500000000005
56.5	-16.0	4.34033
56.5	-15.5	4.33952
56.5	-15.0	4.33883
56.5	-14.5	4.33753
56.5	-14.0	4.33644
56.5	-13.5	4.33723
56.5	-13.0	4.33837
56.5	-12.5	4.3393500000000005
56.5	-12.0	4.340199999999999
56.5	-11.5	4.34073
56.5	-11.0	4.339729999999999
56.5	-10.5	4.33817
56.5	-10.0	4.3332
56.5	-9.5	4.32236
56.5	-9.0	4.30858
56.5	-8.5	4.296069999999999
56.5	-8.0	4.28353
56.5	-7.5	4.26738
56.5	-7.0	4.250970000000001
56.5	-6.5	4.23946
56.5	-6.0	4.23254
56.5	-5.5	4.2266
56.5	-5.0	4.22302
56.5	-4.5	4.22455
56.5	-4.0	4.23028
56.5	-3.5	4.238020000000001
56.5	-3.0	4.24686
56.5	-2.5	4.25695
56.5	-2.0	4.26711
56.5	-1.5	4.27496
56.5	-1.0	4.2797
56.5	-0.5	4.28724
56.5	0.0	4.300560000000001
56.5	0.5	4.31567
56.5	1.0	4.32853
56.5	1.5	4.339270000000001
56.5	2.0	4.348529999999999
56.5	2.5	4.354550000000001
56.5	3.0	4.35746
56.5	3.5	4.35731
56.5	4.0	4.3556099999999995
56.5	4.5	4.3567
56.5	5.0	4.36113
56.5	5.5	4.36721
56.5	6.0	4.37408
56.5	6.5	4.385560000000001
56.5	7.0	4.402270000000001
56.5	7.5	4.42135
56.5	8.0	4.44197
56.5	8.5	4.46138
56.5	9.0	4.47723
56.5	9.5	4.48046
56.5	10.0	4.46943
56.5	10.5	4.450810000000001
56.5	11.0	4.43154
56.5	11.5	4.41035
56.5	12.0	4.39133
56.5	12.5	4.37407
56.5	13.0	4.35778
56.5	13.5	4.34103
56.5	14.0	4.324260000000001
56.5	14.5	4.31258
56.5	15.0	4.31044
56.5	15.5	4.31559
56.5	16.0	4.3225299999999995
56.5	16.5	4.33615
56.5	17.0	4.35407
56.5	17.5	4.37798
56.5	18.0	4.4079
56.5	18.5	4.44083
56.5	19.0	4.47741
56.5	19.5	4.516439999999999
56.5	20.0	4.54387
56.5	20.5	4.56149
56.5	21.0	4.5773
56.5	21.5	4.58862
56.5	22.0	4.590859999999999
56.5	22.5	4.583279999999999
56.5	23.0	4.56825
56.5	23.5	4.55185
56.5	24.0	4.5364700000000004
56.5	24.5	4.52837
56.5	25.0	4.5325
56.5	25.5	4.54734
56.5	26.0	4.56329
56.5	26.5	4.57916
56.5	27.0	4.59571
56.5	27.5	4.61087
56.5	28.0	4.617430000000001
56.5	28.5	4.61791
56.5	29.0	4.61571
56.5	29.5	4.609850000000001
56.5	30.0	4.5892
56.5	30.5	4.55798
56.5	31.0	4.52146
56.5	31.5	4.4773000000000005
56.5	32.0	4.43083
56.5	32.5	4.3886899999999995
56.5	33.0	4.36284
56.5	33.5	4.36251
56.5	34.0	4.37091
56.5	34.5	4.38076
56.5	35.0	4.39223
56.5	35.5	4.40733
56.5	36.0	4.43811
56.5	36.5	4.47534
56.5	37.0	4.515770000000001
56.5	37.5	4.55593
56.5	38.0	4.592350000000001
56.5	38.5	4.62581
56.5	39.0	4.65029
56.5	39.5	4.66085
56.5	40.0	4.66566
57.0	-40.0	4.34609
57.0	-39.5	4.3560799999999995
57.0	-39.0	4.3644300000000005
57.0	-38.5	4.368
57.0	-38.0	4.3691
57.0	-37.5	4.369350000000001
57.0	-37.0	4.36794
57.0	-36.5	4.3602
57.0	-36.0	4.347
57.0	-35.5	4.32995
57.0	-35.0	4.31109
57.0	-34.5	4.29255
57.0	-34.0	4.27688
57.0	-33.5	4.27061
57.0	-33.0	4.27578
57.0	-32.5	4.28434
57.0	-32.0	4.29482
57.0	-31.5	4.30511
57.0	-31.0	4.31395
57.0	-30.5	4.3212399999999995
57.0	-30.0	4.3285
57.0	-29.5	4.33713
57.0	-29.0	4.3462700000000005
57.0	-28.5	4.35458
57.0	-28.0	4.360180000000001
57.0	-27.5	4.361890000000001
57.0	-27.0	4.35978
57.0	-26.5	4.35666
57.0	-26.0	4.3532
57.0	-25.5	4.34839
57.0	-25.0	4.334
57.0	-24.5	4.3137799999999995
57.0	-24.0	4.29162
57.0	-23.5	4.26967
57.0	-23.0	4.2509
57.0	-22.5	4.23749
57.0	-22.0	4.23065
57.0	-21.5	4.23092
57.0	-21.0	4.2340100000000005
57.0	-20.5	4.23778
57.0	-20.0	4.24483
57.0	-19.5	4.25866
57.0	-19.0	4.27382
57.0	-18.5	4.28865
57.0	-18.0	4.3021400000000005
57.0	-17.5	4.31394
57.0	-17.0	4.32224
57.0	-16.5	4.32568
57.0	-16.0	4.32467
57.0	-15.5	4.32287
57.0	-15.0	4.32132
57.0	-14.5	4.32089
57.0	-14.0	4.32171
57.0	-13.5	4.3243
57.0	-13.0	4.32608
57.0	-12.5	4.32799
57.0	-12.0	4.3305299999999995
57.0	-11.5	4.3324
57.0	-11.0	4.3327
57.0	-10.5	4.33213
57.0	-10.0	4.32845
57.0	-9.5	4.3177200000000004
57.0	-9.0	4.30405
57.0	-8.5	4.2918199999999995
57.0	-8.0	4.27906
57.0	-7.5	4.26345
57.0	-7.0	4.24794
57.0	-6.5	4.23439
57.0	-6.0	4.22534
57.0	-5.5	4.2174700000000005
57.0	-5.0	4.21347
57.0	-4.5	4.21651
57.0	-4.0	4.22521
57.0	-3.5	4.2356300000000005
57.0	-3.0	4.24702
57.0	-2.5	4.25901
57.0	-2.0	4.2691300000000005
57.0	-1.5	4.27576
57.0	-1.0	4.27876
57.0	-0.5	4.28287
57.0	0.0	4.2933699999999995
57.0	0.5	4.30704
57.0	1.0	4.319
57.0	1.5	4.32973
57.0	2.0	4.33847
57.0	2.5	4.344390000000001
57.0	3.0	4.3463199999999995
57.0	3.5	4.34274
57.0	4.0	4.3374
57.0	4.5	4.335850000000001
57.0	5.0	4.34094
57.0	5.5	4.35071
57.0	6.0	4.36143
57.0	6.5	4.37646
57.0	7.0	4.39421
57.0	7.5	4.41428
57.0	8.0	4.4336199999999995
57.0	8.5	4.44994
57.0	9.0	4.46049
57.0	9.5	4.46028
57.0	10.0	4.44847
57.0	10.5	4.4301
57.0	11.0	4.41192
57.0	11.5	4.39232
57.0	12.0	4.37324
57.0	12.5	4.35714
57.0	13.0	4.34692
57.0	13.5	4.33775
57.0	14.0	4.3293
57.0	14.5	4.32446
57.0	15.0	4.3256499999999996
57.0	15.5	4.32887
57.0	16.0	4.3326899999999995
57.0	16.5	4.34368
57.0	17.0	4.36188
57.0	17.5	4.38363
57.0	18.0	4.40567
57.0	18.5	4.4309899999999995
57.0	19.0	4.45884
57.0	19.5	4.48966
57.0	20.0	4.51253
57.0	20.5	4.53139
57.0	21.0	4.54952
57.0	21.5	4.56108
57.0	22.0	4.5626999999999995
57.0	22.5	4.55096
57.0	23.0	4.53117
57.0	23.5	4.51156
57.0	24.0	4.49398
57.0	24.5	4.4852799999999995
57.0	25.0	4.4948500000000005
57.0	25.5	4.51595
57.0	26.0	4.5363
57.0	26.5	4.55333
57.0	27.0	4.57151
57.0	27.5	4.58894
57.0	28.0	4.5991800000000005
57.0	28.5	4.6035200000000005
57.0	29.0	4.605600000000001
57.0	29.5	4.60468
57.0	30.0	4.58797
57.0	30.5	4.55467
57.0	31.0	4.5160100000000005
57.0	31.5	4.4728900000000005
57.0	32.0	4.4281999999999995
57.0	32.5	4.38779
57.0	33.0	4.36182
57.0	33.5	4.3599
57.0	34.0	4.36553
57.0	34.5	4.372850000000001
57.0	35.0	4.3815100000000005
57.0	35.5	4.39181
57.0	36.0	4.41591
57.0	36.5	4.449979999999999
57.0	37.0	4.48858
57.0	37.5	4.52762
57.0	38.0	4.56285
57.0	38.5	4.59329
57.0	39.0	4.61862
57.0	39.5	4.6345
57.0	40.0	4.6462200000000005
57.5	-40.0	4.34995
57.5	-39.5	4.35968
57.5	-39.0	4.36919
57.5	-38.5	4.37458
57.5	-38.0	4.37771
57.5	-37.5	4.37998
57.5	-37.0	4.38003
57.5	-36.5	4.3718900000000005
57.5	-36.0	4.35809
57.5	-35.5	4.34254
57.5	-35.0	4.325399999999999
57.5	-34.5	4.30779
57.5	-34.0	4.2918400000000005
57.5	-33.5	4.284140000000001
57.5	-33.0	4.28709
57.5	-32.5	4.29293
57.5	-32.0	4.3006
57.5	-31.5	4.309189999999999
57.5	-31.0	4.316479999999999
57.5	-30.5	4.32239
57.5	-30.0	4.328069999999999
57.5	-29.5	4.335430000000001
57.5	-29.0	4.34357
57.5	-28.5	4.35119
57.5	-28.0	4.3564
57.5	-27.5	4.3575
57.5	-27.0	4.35538
57.5	-26.5	4.35271
57.5	-26.0	4.34995
57.5	-25.5	4.34396
57.5	-25.0	4.33069
57.5	-24.5	4.3115
57.5	-24.0	4.28943
57.5	-23.5	4.26735
57.5	-23.0	4.2481
57.5	-22.5	4.2349
57.5	-22.0	4.227729999999999
57.5	-21.5	4.22669
57.5	-21.0	4.22687
57.5	-20.5	4.22792
57.5	-20.0	4.23179
57.5	-19.5	4.24291
57.5	-19.0	4.257560000000001
57.5	-18.5	4.273149999999999
57.5	-18.0	4.28814
57.5	-17.5	4.30041
57.5	-17.0	4.30821
57.5	-16.5	4.30951
57.5	-16.0	4.30565
57.5	-15.5	4.30155
57.5	-15.0	4.29816
57.5	-14.5	4.298520000000001
57.5	-14.0	4.30309
57.5	-13.5	4.3088500000000005
57.5	-13.0	4.314229999999999
57.5	-12.5	4.31858
57.5	-12.0	4.32134
57.5	-11.5	4.32258
57.5	-11.0	4.32218
57.5	-10.5	4.32129
57.5	-10.0	4.31741
57.5	-9.5	4.30828
57.5	-9.0	4.29721
57.5	-8.5	4.28661
57.5	-8.0	4.27544
57.5	-7.5	4.26104
57.5	-7.0	4.245760000000001
57.5	-6.5	4.23258
57.5	-6.0	4.22357
57.5	-5.5	4.21594
57.5	-5.0	4.21275
57.5	-4.5	4.21686
57.5	-4.0	4.22681
57.5	-3.5	4.23816
57.5	-3.0	4.25017
57.5	-2.5	4.262359999999999
57.5	-2.0	4.27211
57.5	-1.5	4.277340000000001
57.5	-1.0	4.27838
57.5	-0.5	4.28038
57.5	0.0	4.28646
57.5	0.5	4.296810000000001
57.5	1.0	4.3077700000000005
57.5	1.5	4.318560000000001
57.5	2.0	4.32859
57.5	2.5	4.3339
57.5	3.0	4.332050000000001
57.5	3.5	4.32557
57.5	4.0	4.318899999999999
57.5	4.5	4.3162
57.5	5.0	4.32116
57.5	5.5	4.3326
57.5	6.0	4.34539
57.5	6.5	4.36245
57.5	7.0	4.385890000000001
57.5	7.5	4.4085600000000005
57.5	8.0	4.4281999999999995
57.5	8.5	4.4437
57.5	9.0	4.4513
57.5	9.5	4.44866
57.5	10.0	4.43625
57.5	10.5	4.41762
57.5	11.0	4.39753
57.5	11.5	4.374899999999999
57.5	12.0	4.354310000000001
57.5	12.5	4.34081
57.5	13.0	4.334149999999999
57.5	13.5	4.32922
57.5	14.0	4.32684
57.5	14.5	4.32834
57.5	15.0	4.332050000000001
57.5	15.5	4.33504
57.5	16.0	4.338640000000001
57.5	16.5	4.35019
57.5	17.0	4.36865
57.5	17.5	4.388850000000001
57.5	18.0	4.40799
57.5	18.5	4.4280100000000004
57.5	19.0	4.44871
57.5	19.5	4.46806
57.5	20.0	4.4861
57.5	20.5	4.50427
57.5	21.0	4.5229099999999995
57.5	21.5	4.53543
57.5	22.0	4.531149999999999
57.5	22.5	4.51523
57.5	23.0	4.4940299999999995
57.5	23.5	4.472090000000001
57.5	24.0	4.45368
57.5	24.5	4.44575
57.5	25.0	4.45994
57.5	25.5	4.48404
57.5	26.0	4.50881
57.5	26.5	4.53108
57.5	27.0	4.55022
57.5	27.5	4.56651
57.5	28.0	4.57597
57.5	28.5	4.582050000000001
57.5	29.0	4.58713
57.5	29.5	4.5908
57.5	30.0	4.57739
57.5	30.5	4.54519
57.5	31.0	4.506810000000001
57.5	31.5	4.465020000000001
57.5	32.0	4.4242
57.5	32.5	4.3871899999999995
57.5	33.0	4.36272
57.5	33.5	4.35702
57.5	34.0	4.35928
57.5	34.5	4.3635
57.5	35.0	4.36976
57.5	35.5	4.37779
57.5	36.0	4.3943
57.5	36.5	4.42262
57.5	37.0	4.4573100000000005
57.5	37.5	4.49395
57.5	38.0	4.5311
57.5	38.5	4.56187
57.5	39.0	4.58719
57.5	39.5	4.6071800000000005
57.5	40.0	4.62476
58.0	-40.0	4.3533
58.0	-39.5	4.36342
58.0	-39.0	4.37289
58.0	-38.5	4.380109999999999
58.0	-38.0	4.38596
58.0	-37.5	4.39076
58.0	-37.0	4.39307
58.0	-36.5	4.38587
58.0	-36.0	4.3716099999999996
58.0	-35.5	4.35581
58.0	-35.0	4.340409999999999
58.0	-34.5	4.325
58.0	-34.0	4.31071
58.0	-33.5	4.30226
58.0	-33.0	4.30217
58.0	-32.5	4.304600000000001
58.0	-32.0	4.30834
58.0	-31.5	4.31345
58.0	-31.0	4.32033
58.0	-30.5	4.32571
58.0	-30.0	4.32939
58.0	-29.5	4.334560000000001
58.0	-29.0	4.340649999999999
58.0	-28.5	4.34671
58.0	-28.0	4.35115
58.0	-27.5	4.35208
58.0	-27.0	4.3510100000000005
58.0	-26.5	4.34929
58.0	-26.0	4.34724
58.0	-25.5	4.34077
58.0	-25.0	4.32854
58.0	-24.5	4.310989999999999
58.0	-24.0	4.289770000000001
58.0	-23.5	4.26711
58.0	-23.0	4.24605
58.0	-22.5	4.23017
58.0	-22.0	4.2228699999999995
58.0	-21.5	4.22145
58.0	-21.0	4.22062
58.0	-20.5	4.220470000000001
58.0	-20.0	4.223409999999999
58.0	-19.5	4.2308
58.0	-19.0	4.243399999999999
58.0	-18.5	4.25812
58.0	-18.0	4.2730500000000005
58.0	-17.5	4.286560000000001
58.0	-17.0	4.29213
58.0	-16.5	4.29063
58.0	-16.0	4.2857899999999995
58.0	-15.5	4.28092
58.0	-15.0	4.27778
58.0	-14.5	4.27892
58.0	-14.0	4.28559
58.0	-13.5	4.2932
58.0	-13.0	4.300770000000001
58.0	-12.5	4.3078199999999995
58.0	-12.0	4.3108900000000006
58.0	-11.5	4.3107299999999995
58.0	-11.0	4.309810000000001
58.0	-10.5	4.30839
58.0	-10.0	4.30426
58.0	-9.5	4.29767
58.0	-9.0	4.289689999999999
58.0	-8.5	4.28084
58.0	-8.0	4.271319999999999
58.0	-7.5	4.25828
58.0	-7.0	4.24407
58.0	-6.5	4.23292
58.0	-6.0	4.22607
58.0	-5.5	4.22091
58.0	-5.0	4.2200500000000005
58.0	-4.5	4.22467
58.0	-4.0	4.233560000000001
58.0	-3.5	4.24388
58.0	-3.0	4.254899999999999
58.0	-2.5	4.26638
58.0	-2.0	4.27458
58.0	-1.5	4.27746
58.0	-1.0	4.27687
58.0	-0.5	4.278
58.0	0.0	4.28149
58.0	0.5	4.28799
58.0	1.0	4.2972399999999995
58.0	1.5	4.30721
58.0	2.0	4.3168299999999995
58.0	2.5	4.31977
58.0	3.0	4.3148599999999995
58.0	3.5	4.30609
58.0	4.0	4.29955
58.0	4.5	4.29848
58.0	5.0	4.30337
58.0	5.5	4.31344
58.0	6.0	4.32682
58.0	6.5	4.3455200000000005
58.0	7.0	4.37412
58.0	7.5	4.40285
58.0	8.0	4.42326
58.0	8.5	4.438479999999999
58.0	9.0	4.444859999999999
58.0	9.5	4.44128
58.0	10.0	4.4283
58.0	10.5	4.408390000000001
58.0	11.0	4.38612
58.0	11.5	4.3613100000000005
58.0	12.0	4.33985
58.0	12.5	4.3292
58.0	13.0	4.32583
58.0	13.5	4.32442
58.0	14.0	4.32628
58.0	14.5	4.33084
58.0	15.0	4.3359499999999995
58.0	15.5	4.34034
58.0	16.0	4.34491
58.0	16.5	4.35617
58.0	17.0	4.3733900000000006
58.0	17.5	4.390680000000001
58.0	18.0	4.40717
58.0	18.5	4.423979999999999
58.0	19.0	4.4407700000000006
58.0	19.5	4.45399
58.0	20.0	4.46617
58.0	20.5	4.479010000000001
58.0	21.0	4.49364
58.0	21.5	4.50186
58.0	22.0	4.4950600000000005
58.0	22.5	4.47845
58.0	23.0	4.45888
58.0	23.5	4.43942
58.0	24.0	4.42508
58.0	24.5	4.42237
58.0	25.0	4.43544
58.0	25.5	4.458600000000001
58.0	26.0	4.48439
58.0	26.5	4.50838
58.0	27.0	4.52843
58.0	27.5	4.54207
58.0	28.0	4.550649999999999
58.0	28.5	4.5575
58.0	29.0	4.564220000000001
58.0	29.5	4.56968
58.0	30.0	4.55947
58.0	30.5	4.5319899999999995
58.0	31.0	4.49622
58.0	31.5	4.45755
58.0	32.0	4.42051
58.0	32.5	4.38739
58.0	33.0	4.36289
58.0	33.5	4.35459
58.0	34.0	4.35322
58.0	34.5	4.354010000000001
58.0	35.0	4.357729999999999
58.0	35.5	4.36512
58.0	36.0	4.37557
58.0	36.5	4.39711
58.0	37.0	4.42667
58.0	37.5	4.45991
58.0	38.0	4.497739999999999
58.0	38.5	4.5310500000000005
58.0	39.0	4.556760000000001
58.0	39.5	4.5793
58.0	40.0	4.60103
58.5	-40.0	4.35658
58.5	-39.5	4.36707
58.5	-39.0	4.37646
58.5	-38.5	4.3848199999999995
58.5	-38.0	4.39321
58.5	-37.5	4.40029
58.5	-37.0	4.4051
58.5	-36.5	4.40024
58.5	-36.0	4.3866499999999995
58.5	-35.5	4.37089
58.5	-35.0	4.35516
58.5	-34.5	4.34103
58.5	-34.0	4.328600000000001
58.5	-33.5	4.32043
58.5	-33.0	4.31795
58.5	-32.5	4.31713
58.5	-32.0	4.3174399999999995
58.5	-31.5	4.31939
58.5	-31.0	4.324409999999999
58.5	-30.5	4.32885
58.5	-30.0	4.33111
58.5	-29.5	4.33388
58.5	-29.0	4.33758
58.5	-28.5	4.34152
58.5	-28.0	4.34465
58.5	-27.5	4.34575
58.5	-27.0	4.3461300000000005
58.5	-26.5	4.34612
58.5	-26.0	4.3455200000000005
58.5	-25.5	4.33947
58.5	-25.0	4.32696
58.5	-24.5	4.30967
58.5	-24.0	4.28831
58.5	-23.5	4.26521
58.5	-23.0	4.2430900000000005
58.5	-22.5	4.2246999999999995
58.5	-22.0	4.2174499999999995
58.5	-21.5	4.21545
58.5	-21.0	4.2136700000000005
58.5	-20.5	4.21316
58.5	-20.0	4.2164399999999995
58.5	-19.5	4.222810000000001
58.5	-19.0	4.232
58.5	-18.5	4.2438400000000005
58.5	-18.0	4.25654
58.5	-17.5	4.2676300000000005
58.5	-17.0	4.27222
58.5	-16.5	4.26978
58.5	-16.0	4.26566
58.5	-15.5	4.26153
58.5	-15.0	4.2605900000000005
58.5	-14.5	4.26384
58.5	-14.0	4.269489999999999
58.5	-13.5	4.27714
58.5	-13.0	4.28524
58.5	-12.5	4.29299
58.5	-12.0	4.29773
58.5	-11.5	4.29787
58.5	-11.0	4.29725
58.5	-10.5	4.29592
58.5	-10.0	4.29251
58.5	-9.5	4.28773
58.5	-9.0	4.2812399999999995
58.5	-8.5	4.2736
58.5	-8.0	4.26527
58.5	-7.5	4.25452
58.5	-7.0	4.2430900000000005
58.5	-6.5	4.23531
58.5	-6.0	4.2308699999999995
58.5	-5.5	4.22797
58.5	-5.0	4.2291300000000005
58.5	-4.5	4.23393
58.5	-4.0	4.2414499999999995
58.5	-3.5	4.25056
58.5	-3.0	4.26022
58.5	-2.5	4.26953
58.5	-2.0	4.27521
58.5	-1.5	4.27533
58.5	-1.0	4.27362
58.5	-0.5	4.27381
58.5	0.0	4.2767
58.5	0.5	4.2819899999999995
58.5	1.0	4.2883000000000004
58.5	1.5	4.29508
58.5	2.0	4.29944
58.5	2.5	4.29883
58.5	3.0	4.29334
58.5	3.5	4.28542
58.5	4.0	4.28085
58.5	4.5	4.28108
58.5	5.0	4.286029999999999
58.5	5.5	4.2956
58.5	6.0	4.30879
58.5	6.5	4.32931
58.5	7.0	4.35946
58.5	7.5	4.39156
58.5	8.0	4.415430000000001
58.5	8.5	4.43257
58.5	9.0	4.44069
58.5	9.5	4.43682
58.5	10.0	4.42342
58.5	10.5	4.40351
58.5	11.0	4.3805
58.5	11.5	4.35654
58.5	12.0	4.33668
58.5	12.5	4.32809
58.5	13.0	4.32574
58.5	13.5	4.3253
58.5	14.0	4.328270000000001
58.5	14.5	4.33363
58.5	15.0	4.33947
58.5	15.5	4.34487
58.5	16.0	4.351100000000001
58.5	16.5	4.3605
58.5	17.0	4.3744700000000005
58.5	17.5	4.38812
58.5	18.0	4.40184
58.5	18.5	4.41579
58.5	19.0	4.43001
58.5	19.5	4.44167
58.5	20.0	4.44876
58.5	20.5	4.45487
58.5	21.0	4.46281
58.5	21.5	4.4643500000000005
58.5	22.0	4.45647
58.5	22.5	4.44252
58.5	23.0	4.4271199999999995
58.5	23.5	4.4123
58.5	24.0	4.4047
58.5	24.5	4.40756
58.5	25.0	4.4187899999999996
58.5	25.5	4.43873
58.5	26.0	4.462140000000001
58.5	26.5	4.484850000000001
58.5	27.0	4.50407
58.5	27.5	4.51628
58.5	28.0	4.52537
58.5	28.5	4.5335600000000005
58.5	29.0	4.541390000000001
58.5	29.5	4.5459700000000005
58.5	30.0	4.54006
58.5	30.5	4.51746
58.5	31.0	4.48625
58.5	31.5	4.45217
58.5	32.0	4.41831
58.5	32.5	4.386310000000001
58.5	33.0	4.36291
58.5	33.5	4.35311
58.5	34.0	4.34803
58.5	34.5	4.345149999999999
58.5	35.0	4.34612
58.5	35.5	4.35254
58.5	36.0	4.36217
58.5	36.5	4.37842
58.5	37.0	4.4032
58.5	37.5	4.4315299999999995
58.5	38.0	4.46689
58.5	38.5	4.50192
58.5	39.0	4.529
58.5	39.5	4.55394
58.5	40.0	4.578060000000001
59.0	-40.0	4.35975
59.0	-39.5	4.37051
59.0	-39.0	4.38009
59.0	-38.5	4.38896
59.0	-38.0	4.3981
59.0	-37.5	4.4066
59.0	-37.0	4.41299
59.0	-36.5	4.41109
59.0	-36.0	4.40004
59.0	-35.5	4.3855200000000005
59.0	-35.0	4.37018
59.0	-34.5	4.356199999999999
59.0	-34.0	4.34519
59.0	-33.5	4.33762
59.0	-33.0	4.33379
59.0	-32.5	4.33061
59.0	-32.0	4.32817
59.0	-31.5	4.32707
59.0	-31.0	4.32864
59.0	-30.5	4.33096
59.0	-30.0	4.332050000000001
59.0	-29.5	4.33343
59.0	-29.0	4.335
59.0	-28.5	4.33678
59.0	-28.0	4.33849
59.0	-27.5	4.34003
59.0	-27.0	4.34171
59.0	-26.5	4.34334
59.0	-26.0	4.344399999999999
59.0	-25.5	4.339270000000001
59.0	-25.0	4.325279999999999
59.0	-24.5	4.30574
59.0	-24.0	4.28398
59.0	-23.5	4.26154
59.0	-23.0	4.23938
59.0	-22.5	4.22079
59.0	-22.0	4.21325
59.0	-21.5	4.21007
59.0	-21.0	4.20724
59.0	-20.5	4.20589
59.0	-20.0	4.2089
59.0	-19.5	4.21525
59.0	-19.0	4.22307
59.0	-18.5	4.2314300000000005
59.0	-18.0	4.24076
59.0	-17.5	4.24761
59.0	-17.0	4.2505299999999995
59.0	-16.5	4.24878
59.0	-16.0	4.24629
59.0	-15.5	4.24465
59.0	-15.0	4.24548
59.0	-14.5	4.24899
59.0	-14.0	4.25497
59.0	-13.5	4.2621
59.0	-13.0	4.2698599999999995
59.0	-12.5	4.27702
59.0	-12.0	4.28277
59.0	-11.5	4.28496
59.0	-11.0	4.285220000000001
59.0	-10.5	4.28533
59.0	-10.0	4.282970000000001
59.0	-9.5	4.27822
59.0	-9.0	4.27157
59.0	-8.5	4.26442
59.0	-8.0	4.25695
59.0	-7.5	4.249569999999999
59.0	-7.0	4.24278
59.0	-6.5	4.239319999999999
59.0	-6.0	4.23712
59.0	-5.5	4.23598
59.0	-5.0	4.2378100000000005
59.0	-4.5	4.24247
59.0	-4.0	4.24918
59.0	-3.5	4.25662
59.0	-3.0	4.26404
59.0	-2.5	4.2698
59.0	-2.0	4.272060000000001
59.0	-1.5	4.27041
59.0	-1.0	4.2683
59.0	-0.5	4.26818
59.0	0.0	4.27084
59.0	0.5	4.27424
59.0	1.0	4.27778
59.0	1.5	4.28106
59.0	2.0	4.28044
59.0	2.5	4.27646
59.0	3.0	4.27082
59.0	3.5	4.26421
59.0	4.0	4.25992
59.0	4.5	4.26104
59.0	5.0	4.26753
59.0	5.5	4.27875
59.0	6.0	4.29465
59.0	6.5	4.31837
59.0	7.0	4.34737
59.0	7.5	4.37868
59.0	8.0	4.40501
59.0	8.5	4.423979999999999
59.0	9.0	4.43537
59.0	9.5	4.43425
59.0	10.0	4.42117
59.0	10.5	4.4025799999999995
59.0	11.0	4.38159
59.0	11.5	4.360810000000001
59.0	12.0	4.3448199999999995
59.0	12.5	4.336060000000001
59.0	13.0	4.33235
59.0	13.5	4.32987
59.0	14.0	4.33147
59.0	14.5	4.337020000000001
59.0	15.0	4.34294
59.0	15.5	4.34824
59.0	16.0	4.35493
59.0	16.5	4.3626499999999995
59.0	17.0	4.37204
59.0	17.5	4.38241
59.0	18.0	4.39334
59.0	18.5	4.40544
59.0	19.0	4.41817
59.0	19.5	4.42753
59.0	20.0	4.43303
59.0	20.5	4.43692
59.0	21.0	4.43887
59.0	21.5	4.43499
59.0	22.0	4.42633
59.0	22.5	4.41497
59.0	23.0	4.40325
59.0	23.5	4.39279
59.0	24.0	4.38779
59.0	24.5	4.39345
59.0	25.0	4.408189999999999
59.0	25.5	4.42652
59.0	26.0	4.44651
59.0	26.5	4.4665799999999996
59.0	27.0	4.48276
59.0	27.5	4.49341
59.0	28.0	4.5023599999999995
59.0	28.5	4.51196
59.0	29.0	4.52133
59.0	29.5	4.5256099999999995
59.0	30.0	4.52102
59.0	30.5	4.50291
59.0	31.0	4.47647
59.0	31.5	4.44644
59.0	32.0	4.415109999999999
59.0	32.5	4.3847
59.0	33.0	4.364
59.0	33.5	4.352609999999999
59.0	34.0	4.34366
59.0	34.5	4.33692
59.0	35.0	4.33481
59.0	35.5	4.3427
59.0	36.0	4.35891
59.0	36.5	4.3751999999999995
59.0	37.0	4.39474
59.0	37.5	4.41685
59.0	38.0	4.447970000000001
59.0	38.5	4.48112
59.0	39.0	4.507890000000001
59.0	39.5	4.5344
59.0	40.0	4.5601899999999995
59.5	-40.0	4.36247
59.5	-39.5	4.37334
59.5	-39.0	4.3827799999999995
59.5	-38.5	4.39225
59.5	-38.0	4.40162
59.5	-37.5	4.40942
59.5	-37.0	4.41514
59.5	-36.5	4.41664
59.5	-36.0	4.40925
59.5	-35.5	4.39745
59.5	-35.0	4.38429
59.5	-34.5	4.37186
59.5	-34.0	4.361470000000001
59.5	-33.5	4.35418
59.5	-33.0	4.34925
59.5	-32.5	4.34396
59.5	-32.0	4.338979999999999
59.5	-31.5	4.335
59.5	-31.0	4.3324
59.5	-30.5	4.33178
59.5	-30.0	4.33174
59.5	-29.5	4.33195
59.5	-29.0	4.33226
59.5	-28.5	4.33279
59.5	-28.0	4.33386
59.5	-27.5	4.3357
59.5	-27.0	4.33776
59.5	-26.5	4.33922
59.5	-26.0	4.34038
59.5	-25.5	4.33633
59.5	-25.0	4.32095
59.5	-24.5	4.30082
59.5	-24.0	4.27881
59.5	-23.5	4.25721
59.5	-23.0	4.23645
59.5	-22.5	4.21996
59.5	-22.0	4.21092
59.5	-21.5	4.20648
59.5	-21.0	4.20224
59.5	-20.5	4.198930000000001
59.5	-20.0	4.20041
59.5	-19.5	4.2063999999999995
59.5	-19.0	4.21415
59.5	-18.5	4.22205
59.5	-18.0	4.22948
59.5	-17.5	4.23388
59.5	-17.0	4.2347399999999995
59.5	-16.5	4.2331
59.5	-16.0	4.23081
59.5	-15.5	4.228770000000001
59.5	-15.0	4.229430000000001
59.5	-14.5	4.23375
59.5	-14.0	4.2412399999999995
59.5	-13.5	4.25
59.5	-13.0	4.25858
59.5	-12.5	4.26628
59.5	-12.0	4.2722
59.5	-11.5	4.27537
59.5	-11.0	4.27557
59.5	-10.5	4.27557
59.5	-10.0	4.273569999999999
59.5	-9.5	4.26825
59.5	-9.0	4.26159
59.5	-8.5	4.25536
59.5	-8.0	4.24934
59.5	-7.5	4.24493
59.5	-7.0	4.24321
59.5	-6.5	4.24288
59.5	-6.0	4.24268
59.5	-5.5	4.242859999999999
59.5	-5.0	4.24533
59.5	-4.5	4.24976
59.5	-4.0	4.25504
59.5	-3.5	4.26034
59.5	-3.0	4.26496
59.5	-2.5	4.26724
59.5	-2.0	4.266439999999999
59.5	-1.5	4.26456
59.5	-1.0	4.2623500000000005
59.5	-0.5	4.26145
59.5	0.0	4.26201
59.5	0.5	4.262560000000001
59.5	1.0	4.26368
59.5	1.5	4.2645100000000005
59.5	2.0	4.2619
59.5	2.5	4.25633
59.5	3.0	4.24965
59.5	3.5	4.24277
59.5	4.0	4.23709
59.5	4.5	4.23901
59.5	5.0	4.249140000000001
59.5	5.5	4.26368
59.5	6.0	4.28246
59.5	6.5	4.308680000000001
59.5	7.0	4.338430000000001
59.5	7.5	4.36762
59.5	8.0	4.39381
59.5	8.5	4.4132299999999995
59.5	9.0	4.42697
59.5	9.5	4.42978
59.5	10.0	4.4206
59.5	10.5	4.4044799999999995
59.5	11.0	4.38645
59.5	11.5	4.36921
59.5	12.0	4.3551
59.5	12.5	4.34447
59.5	13.0	4.33845
59.5	13.5	4.33418
59.5	14.0	4.3342
59.5	14.5	4.33891
59.5	15.0	4.34545
59.5	15.5	4.35117
59.5	16.0	4.35747
59.5	16.5	4.36425
59.5	17.0	4.37074
59.5	17.5	4.37774
59.5	18.0	4.3855900000000005
59.5	18.5	4.39415
59.5	19.0	4.40396
59.5	19.5	4.411770000000001
59.5	20.0	4.41665
59.5	20.5	4.42059
59.5	21.0	4.42169
59.5	21.5	4.417590000000001
59.5	22.0	4.40904
59.5	22.5	4.39821
59.5	23.0	4.38717
59.5	23.5	4.37625
59.5	24.0	4.372739999999999
59.5	24.5	4.38199
59.5	25.0	4.40057
59.5	25.5	4.42131
59.5	26.0	4.44083
59.5	26.5	4.45851
59.5	27.0	4.4713400000000005
59.5	27.5	4.479010000000001
59.5	28.0	4.48617
59.5	28.5	4.49566
59.5	29.0	4.50528
59.5	29.5	4.50772
59.5	30.0	4.5017700000000005
59.5	30.5	4.48712
59.5	31.0	4.46485
59.5	31.5	4.43918
59.5	32.0	4.41181
59.5	32.5	4.38435
59.5	33.0	4.366149999999999
59.5	33.5	4.35271
59.5	34.0	4.34035
59.5	34.5	4.33016
59.5	35.0	4.327520000000001
59.5	35.5	4.34167
59.5	36.0	4.36433
59.5	36.5	4.38616
59.5	37.0	4.40419
59.5	37.5	4.42143
59.5	38.0	4.44642
59.5	38.5	4.47389
59.5	39.0	4.49758
59.5	39.5	4.52274
59.5	40.0	4.54901
60.0	-40.0	4.36467
60.0	-39.5	4.374569999999999
60.0	-39.0	4.38424
60.0	-38.5	4.39396
60.0	-38.0	4.40343
60.0	-37.5	4.4111
60.0	-37.0	4.416399999999999
60.0	-36.5	4.4193
60.0	-36.0	4.41584
60.0	-35.5	4.407649999999999
60.0	-35.0	4.39748
60.0	-34.5	4.38742
60.0	-34.0	4.377800000000001
60.0	-33.5	4.36967
60.0	-33.0	4.3621300000000005
60.0	-32.5	4.35474
60.0	-32.0	4.34743
60.0	-31.5	4.34067
60.0	-31.0	4.334149999999999
60.0	-30.5	4.33136
60.0	-30.0	4.330229999999999
60.0	-29.5	4.32929
60.0	-29.0	4.32847
60.0	-28.5	4.32825
60.0	-28.0	4.32937
60.0	-27.5	4.33041
60.0	-27.0	4.33048
60.0	-26.5	4.33039
60.0	-26.0	4.33059
60.0	-25.5	4.3261199999999995
60.0	-25.0	4.3119499999999995
60.0	-24.5	4.2936000000000005
60.0	-24.0	4.27349
60.0	-23.5	4.25387
60.0	-23.0	4.2355
60.0	-22.5	4.22021
60.0	-22.0	4.21014
60.0	-21.5	4.20411
60.0	-21.0	4.19812
60.0	-20.5	4.1926499999999995
60.0	-20.0	4.19161
60.0	-19.5	4.19682
60.0	-19.0	4.204680000000001
60.0	-18.5	4.21258
60.0	-18.0	4.2195
60.0	-17.5	4.22359
60.0	-17.0	4.22378
60.0	-16.5	4.220470000000001
60.0	-16.0	4.21551
60.0	-15.5	4.21048
60.0	-15.0	4.20954
60.0	-14.5	4.21625
60.0	-14.0	4.22764
60.0	-13.5	4.2396
60.0	-13.0	4.24996
60.0	-12.5	4.25917
60.0	-12.0	4.26562
60.0	-11.5	4.2679
60.0	-11.0	4.26654
60.0	-10.5	4.26471
60.0	-10.0	4.26151
60.0	-9.5	4.25662
60.0	-9.0	4.251939999999999
60.0	-8.5	4.24788
60.0	-8.0	4.24383
60.0	-7.5	4.2419899999999995
60.0	-7.0	4.24248
60.0	-6.5	4.244
60.0	-6.0	4.24553
60.0	-5.5	4.24691
60.0	-5.0	4.24976
60.0	-4.5	4.2538599999999995
60.0	-4.0	4.2576
60.0	-3.5	4.26093
60.0	-3.0	4.26291
60.0	-2.5	4.26274
60.0	-2.0	4.26138
60.0	-1.5	4.2591
60.0	-1.0	4.25617
60.0	-0.5	4.252800000000001
60.0	0.0	4.249479999999999
60.0	0.5	4.24757
60.0	1.0	4.24745
60.0	1.5	4.2471000000000005
60.0	2.0	4.2440299999999995
60.0	2.5	4.2386099999999995
60.0	3.0	4.23167
60.0	3.5	4.22464
60.0	4.0	4.21903
60.0	4.5	4.2219
60.0	5.0	4.23482
60.0	5.5	4.25315
60.0	6.0	4.273149999999999
60.0	6.5	4.30022
60.0	7.0	4.3300600000000005
60.0	7.5	4.358899999999999
60.0	8.0	4.38253
60.0	8.5	4.39904
60.0	9.0	4.41326
60.0	9.5	4.41981
60.0	10.0	4.416510000000001
60.0	10.5	4.40639
60.0	11.0	4.39363
60.0	11.5	4.37802
60.0	12.0	4.36166
60.0	12.5	4.34901
60.0	13.0	4.3412
60.0	13.5	4.33559
60.0	14.0	4.33396
60.0	14.5	4.337470000000001
60.0	15.0	4.34444
60.0	15.5	4.35149
60.0	16.0	4.35871
60.0	16.5	4.365270000000001
60.0	17.0	4.37122
60.0	17.5	4.37569
60.0	18.0	4.38016
60.0	18.5	4.3847700000000005
60.0	19.0	4.39021
60.0	19.5	4.39582
60.0	20.0	4.40041
60.0	20.5	4.40522
60.0	21.0	4.407
60.0	21.5	4.40354
60.0	22.0	4.39626
60.0	22.5	4.3866000000000005
60.0	23.0	4.37642
60.0	23.5	4.36692
60.0	24.0	4.36559
60.0	24.5	4.37753
60.0	25.0	4.39775
60.0	25.5	4.4192
60.0	26.0	4.43979
60.0	26.5	4.45797
60.0	27.0	4.4700299999999995
60.0	27.5	4.47405
60.0	28.0	4.47731
60.0	28.5	4.48322
60.0	29.0	4.48972
60.0	29.5	4.49032
60.0	30.0	4.4825
60.0	30.5	4.46905
60.0	31.0	4.4514700000000005
60.0	31.5	4.43115
60.0	32.0	4.4095200000000006
60.0	32.5	4.38616
60.0	33.0	4.36934
60.0	33.5	4.3535900000000005
60.0	34.0	4.3389
60.0	34.5	4.3269899999999994
60.0	35.0	4.32934
60.0	35.5	4.3491800000000005
60.0	36.0	4.37686
60.0	36.5	4.40351
60.0	37.0	4.42567
60.0	37.5	4.44382
60.0	38.0	4.4618
60.0	38.5	4.48114
60.0	39.0	4.49913
60.0	39.5	4.52083
60.0	40.0	4.54452
60.5	-40.0	4.36564
60.5	-39.5	4.3746
60.5	-39.0	4.38431
60.5	-38.5	4.394010000000001
60.5	-38.0	4.40376
60.5	-37.5	4.41227
60.5	-37.0	4.41796
60.5	-36.5	4.4204099999999995
60.5	-36.0	4.41941
60.5	-35.5	4.4145
60.5	-35.0	4.4075299999999995
60.5	-34.5	4.400510000000001
60.5	-34.0	4.39221
60.5	-33.5	4.38239
60.5	-33.0	4.37181
60.5	-32.5	4.36122
60.5	-32.0	4.35148
60.5	-31.5	4.3422600000000005
60.5	-31.0	4.33386
60.5	-30.5	4.32997
60.5	-30.0	4.32787
60.5	-29.5	4.3259
60.5	-29.0	4.3242899999999995
60.5	-28.5	4.323600000000001
60.5	-28.0	4.32349
60.5	-27.5	4.32237
60.5	-27.0	4.32055
60.5	-26.5	4.31865
60.5	-26.0	4.31696
60.5	-25.5	4.31163
60.5	-25.0	4.30046
60.5	-24.5	4.285220000000001
60.5	-24.0	4.2683
60.5	-23.5	4.251729999999999
60.5	-23.0	4.2349
60.5	-22.5	4.2199
60.5	-22.0	4.209689999999999
60.5	-21.5	4.20272
60.5	-21.0	4.1955100000000005
60.5	-20.5	4.18888
60.5	-20.0	4.18542
60.5	-19.5	4.18895
60.5	-19.0	4.19598
60.5	-18.5	4.20352
60.5	-18.0	4.21049
60.5	-17.5	4.214390000000001
60.5	-17.0	4.21358
60.5	-16.5	4.20713
60.5	-16.0	4.19846
60.5	-15.5	4.190510000000001
60.5	-15.0	4.18804
60.5	-14.5	4.196470000000001
60.5	-14.0	4.21186
60.5	-13.5	4.22797
60.5	-13.0	4.2430900000000005
60.5	-12.5	4.25422
60.5	-12.0	4.2603
60.5	-11.5	4.26024
60.5	-11.0	4.2557
60.5	-10.5	4.25096
60.5	-10.0	4.24616
60.5	-9.5	4.24247
60.5	-9.0	4.24119
60.5	-8.5	4.24064
60.5	-8.0	4.24035
60.5	-7.5	4.24008
60.5	-7.0	4.24046
60.5	-6.5	4.2418000000000005
60.5	-6.0	4.2438199999999995
60.5	-5.5	4.24592
60.5	-5.0	4.2483699999999995
60.5	-4.5	4.25168
60.5	-4.0	4.25447
60.5	-3.5	4.25665
60.5	-3.0	4.25817
60.5	-2.5	4.25814
60.5	-2.0	4.25631
60.5	-1.5	4.25303
60.5	-1.0	4.24927
60.5	-0.5	4.2438400000000005
60.5	0.0	4.23709
60.5	0.5	4.23301
60.5	1.0	4.23146
60.5	1.5	4.23013
60.5	2.0	4.22688
60.5	2.5	4.221850000000001
60.5	3.0	4.21688
60.5	3.5	4.21312
60.5	4.0	4.21192
60.5	4.5	4.216810000000001
60.5	5.0	4.23064
60.5	5.5	4.24929
60.5	6.0	4.26705
60.5	6.5	4.29159
60.5	7.0	4.32123
60.5	7.5	4.3488299999999995
60.5	8.0	4.36966
60.5	8.5	4.38413
60.5	9.0	4.39733
60.5	9.5	4.406569999999999
60.5	10.0	4.4088400000000005
60.5	10.5	4.4049700000000005
60.5	11.0	4.39639
60.5	11.5	4.38138
60.5	12.0	4.36412
60.5	12.5	4.3499799999999995
60.5	13.0	4.34037
60.5	13.5	4.33348
60.5	14.0	4.33061
60.5	14.5	4.333060000000001
60.5	15.0	4.34042
60.5	15.5	4.34882
60.5	16.0	4.3579300000000005
60.5	16.5	4.3659099999999995
60.5	17.0	4.37104
60.5	17.5	4.37453
60.5	18.0	4.37763
60.5	18.5	4.379989999999999
60.5	19.0	4.38142
60.5	19.5	4.384060000000001
60.5	20.0	4.3877
60.5	20.5	4.39201
60.5	21.0	4.394270000000001
60.5	21.5	4.39253
60.5	22.0	4.38788
60.5	22.5	4.381489999999999
60.5	23.0	4.37355
60.5	23.5	4.36761
60.5	24.0	4.3691
60.5	24.5	4.38208
60.5	25.0	4.40092
60.5	25.5	4.42125
60.5	26.0	4.441409999999999
60.5	26.5	4.4591400000000005
60.5	27.0	4.470260000000001
60.5	27.5	4.47231
60.5	28.0	4.47148
60.5	28.5	4.4732899999999995
60.5	29.0	4.4761999999999995
60.5	29.5	4.47375
60.5	30.0	4.46509
60.5	30.5	4.45277
60.5	31.0	4.43855
60.5	31.5	4.42414
60.5	32.0	4.40825
60.5	32.5	4.3901
60.5	33.0	4.3724799999999995
60.5	33.5	4.35526
60.5	34.0	4.33901
60.5	34.5	4.33024
60.5	35.0	4.338439999999999
60.5	35.5	4.36256
60.5	36.0	4.39387
60.5	36.5	4.424270000000001
60.5	37.0	4.45048
60.5	37.5	4.47086
60.5	38.0	4.48487
60.5	38.5	4.49686
60.5	39.0	4.50836
60.5	39.5	4.52438
60.5	40.0	4.54263
61.0	-40.0	4.365729999999999
61.0	-39.5	4.37463
61.0	-39.0	4.383859999999999
61.0	-38.5	4.39358
61.0	-38.0	4.40367
61.0	-37.5	4.41283
61.0	-37.0	4.419359999999999
61.0	-36.5	4.42072
61.0	-36.0	4.41878
61.0	-35.5	4.41622
61.0	-35.0	4.4122200000000005
61.0	-34.5	4.40795
61.0	-34.0	4.40074
61.0	-33.5	4.38978
61.0	-33.0	4.37713
61.0	-32.5	4.363899999999999
61.0	-32.0	4.351319999999999
61.0	-31.5	4.34067
61.0	-31.0	4.33249
61.0	-30.5	4.32832
61.0	-30.0	4.32588
61.0	-29.5	4.3238900000000005
61.0	-29.0	4.32216
61.0	-28.5	4.3204899999999995
61.0	-28.0	4.31733
61.0	-27.5	4.31334
61.0	-27.0	4.309159999999999
61.0	-26.5	4.30592
61.0	-26.0	4.3029399999999995
61.0	-25.5	4.29725
61.0	-25.0	4.28874
61.0	-24.5	4.27698
61.0	-24.0	4.26292
61.0	-23.5	4.24808
61.0	-23.0	4.232939999999999
61.0	-22.5	4.21837
61.0	-22.0	4.209029999999999
61.0	-21.5	4.201770000000001
61.0	-21.0	4.19458
61.0	-20.5	4.18813
61.0	-20.0	4.18408
61.0	-19.5	4.1851
61.0	-19.0	4.19012
61.0	-18.5	4.196149999999999
61.0	-18.0	4.20207
61.0	-17.5	4.20493
61.0	-17.0	4.2006000000000006
61.0	-16.5	4.19194
61.0	-16.0	4.18225
61.0	-15.5	4.17401
61.0	-15.0	4.17258
61.0	-14.5	4.181439999999999
61.0	-14.0	4.19766
61.0	-13.5	4.21575
61.0	-13.0	4.23359
61.0	-12.5	4.24852
61.0	-12.0	4.2531300000000005
61.0	-11.5	4.25005
61.0	-11.0	4.24387
61.0	-10.5	4.23778
61.0	-10.0	4.23271
61.0	-9.5	4.23058
61.0	-9.0	4.23126
61.0	-8.5	4.23299
61.0	-8.0	4.2347
61.0	-7.5	4.2366
61.0	-7.0	4.23725
61.0	-6.5	4.238020000000001
61.0	-6.0	4.23949
61.0	-5.5	4.24112
61.0	-5.0	4.24304
61.0	-4.5	4.245340000000001
61.0	-4.0	4.24787
61.0	-3.5	4.25014
61.0	-3.0	4.25224
61.0	-2.5	4.25275
61.0	-2.0	4.25003
61.0	-1.5	4.246029999999999
61.0	-1.0	4.24206
61.0	-0.5	4.23629
61.0	0.0	4.228899999999999
61.0	0.5	4.222510000000001
61.0	1.0	4.21813
61.0	1.5	4.21482
61.0	2.0	4.21077
61.0	2.5	4.2074300000000004
61.0	3.0	4.205979999999999
61.0	3.5	4.20662
61.0	4.0	4.2105500000000005
61.0	4.5	4.22001
61.0	5.0	4.23381
61.0	5.5	4.24967
61.0	6.0	4.26444
61.0	6.5	4.28454
61.0	7.0	4.31193
61.0	7.5	4.3378000000000005
61.0	8.0	4.35484
61.0	8.5	4.367649999999999
61.0	9.0	4.37988
61.0	9.5	4.38992
61.0	10.0	4.3964300000000005
61.0	10.5	4.397
61.0	11.0	4.39021
61.0	11.5	4.376810000000001
61.0	12.0	4.36098
61.0	12.5	4.34749
61.0	13.0	4.33655
61.0	13.5	4.32866
61.0	14.0	4.32534
61.0	14.5	4.32697
61.0	15.0	4.33379
61.0	15.5	4.3426599999999995
61.0	16.0	4.35268
61.0	16.5	4.362439999999999
61.0	17.0	4.36841
61.0	17.5	4.3721000000000005
61.0	18.0	4.37471
61.0	18.5	4.37621
61.0	19.0	4.37647
61.0	19.5	4.3760200000000005
61.0	20.0	4.37679
61.0	20.5	4.3786700000000005
61.0	21.0	4.382029999999999
61.0	21.5	4.38408
61.0	22.0	4.38378
61.0	22.5	4.38162
61.0	23.0	4.37775
61.0	23.5	4.37697
61.0	24.0	4.38229
61.0	24.5	4.39391
61.0	25.0	4.40983
61.0	25.5	4.42798
61.0	26.0	4.44621
61.0	26.5	4.46225
61.0	27.0	4.47109
61.0	27.5	4.471439999999999
61.0	28.0	4.4695100000000005
61.0	28.5	4.467899999999999
61.0	29.0	4.466939999999999
61.0	29.5	4.462020000000001
61.0	30.0	4.45348
61.0	30.5	4.4426000000000005
61.0	31.0	4.4308000000000005
61.0	31.5	4.41982
61.0	32.0	4.40836
61.0	32.5	4.39223
61.0	33.0	4.374899999999999
61.0	33.5	4.35717
61.0	34.0	4.34024
61.0	34.5	4.33558
61.0	35.0	4.349729999999999
61.0	35.5	4.3779200000000005
61.0	36.0	4.412109999999999
61.0	36.5	4.445729999999999
61.0	37.0	4.475899999999999
61.0	37.5	4.4986999999999995
61.0	38.0	4.509060000000001
61.0	38.5	4.51326
61.0	39.0	4.51888
61.0	39.5	4.52925
61.0	40.0	4.541930000000001
61.5	-40.0	4.36585
61.5	-39.5	4.37479
61.5	-39.0	4.38335
61.5	-38.5	4.39257
61.5	-38.0	4.402310000000001
61.5	-37.5	4.41143
61.5	-37.0	4.418
61.5	-36.5	4.41836
61.5	-36.0	4.41616
61.5	-35.5	4.41342
61.5	-35.0	4.41054
61.5	-34.5	4.40777
61.5	-34.0	4.40145
61.5	-33.5	4.39062
61.5	-33.0	4.37718
61.5	-32.5	4.3626700000000005
61.5	-32.0	4.34924
61.5	-31.5	4.338430000000001
61.5	-31.0	4.33096
61.5	-30.5	4.32801
61.5	-30.0	4.32626
61.5	-29.5	4.32475
61.5	-29.0	4.32334
61.5	-28.5	4.32002
61.5	-28.0	4.31376
61.5	-27.5	4.30662
61.5	-27.0	4.29938
61.5	-26.5	4.29354
61.5	-26.0	4.2897799999999995
61.5	-25.5	4.28404
61.5	-25.0	4.2763
61.5	-24.5	4.26646
61.5	-24.0	4.2541400000000005
61.5	-23.5	4.24121
61.5	-23.0	4.22823
61.5	-22.5	4.215859999999999
61.5	-22.0	4.20826
61.5	-21.5	4.201
61.5	-21.0	4.1940100000000005
61.5	-20.5	4.1883
61.5	-20.0	4.18489
61.5	-19.5	4.184069999999999
61.5	-19.0	4.18673
61.5	-18.5	4.19078
61.5	-18.0	4.19492
61.5	-17.5	4.1940100000000005
61.5	-17.0	4.18661
61.5	-16.5	4.1763900000000005
61.5	-16.0	4.16612
61.5	-15.5	4.15898
61.5	-15.0	4.160399999999999
61.5	-14.5	4.16917
61.5	-14.0	4.18392
61.5	-13.5	4.201890000000001
61.5	-13.0	4.22039
61.5	-12.5	4.2360299999999995
61.5	-12.0	4.241779999999999
61.5	-11.5	4.23721
61.5	-11.0	4.23083
61.5	-10.5	4.22455
61.5	-10.0	4.2205
61.5	-9.5	4.219180000000001
61.5	-9.0	4.22033
61.5	-8.5	4.22297
61.5	-8.0	4.22555
61.5	-7.5	4.22858
61.5	-7.0	4.23125
61.5	-6.5	4.232819999999999
61.5	-6.0	4.234439999999999
61.5	-5.5	4.2358
61.5	-5.0	4.23762
61.5	-4.5	4.2396199999999995
61.5	-4.0	4.24163
61.5	-3.5	4.243720000000001
