lon	lat	Vp(Km/s)
11.0	38.75	8.0516
11.0	39.0	8.0459
11.0	39.25	8.0403
11.0	39.5	8.0344
11.0	39.75	8.0265
11.0	40.0	8.0187
11.0	40.25	8.0109
11.0	40.5	8.0048
11.0	40.75	7.9991
11.0	41.0	7.988
11.0	41.25	7.9806
11.0	41.5	7.9811
11.0	41.75	7.9815
11.0	42.0	7.9917
11.0	42.25	8.0066
11.0	42.5	8.0215
11.0	42.75	8.0361
11.0	43.0	8.053
11.0	43.25	8.0699
11.0	43.5	8.068
11.0	43.75	8.0822
11.0	44.0	8.0901
11.25	-44.0	8.1285
11.25	-43.75	8.1285
11.25	-43.5	8.1285
11.25	-43.25	8.1285
11.25	-43.0	8.1284
11.25	-42.75	8.1284
11.25	-42.5	8.1284
11.25	-42.25	8.1284
11.25	-42.0	8.1284
11.25	-41.75	8.1284
11.25	-41.5	8.1284
11.25	-41.25	8.1285
11.25	-41.0	8.1286
11.25	-40.75	8.1286
11.25	-40.5	8.1287
11.25	-40.25	8.1288
11.25	-40.0	8.1289
11.25	-39.75	8.1289
11.25	-39.5	8.129
11.25	-39.25	8.1291
11.25	-39.0	8.1292
11.25	-38.75	8.1293
11.25	-38.5	8.1293
11.25	-38.25	8.1294
11.25	-38.0	8.1295
11.25	-37.75	8.1296
11.25	-37.5	8.1298
11.25	-37.25	8.1299
11.25	-37.0	8.1301
11.25	-36.75	8.1302
11.25	-36.5	8.1303
11.25	-36.25	8.1304
11.25	-36.0	8.1305
11.25	-35.75	8.1306
11.25	-35.5	8.1307
11.25	-35.25	8.1308
11.25	-35.0	8.131
11.25	-34.75	8.1313
11.25	-34.5	8.1317
11.25	-34.25	8.132
11.25	-34.0	8.1324
11.25	-33.75	8.1327
11.25	-33.5	8.1329
11.25	-33.25	8.1331
11.25	-33.0	8.1333
11.25	-32.75	8.1334
11.25	-32.5	8.1336
11.25	-32.25	8.1338
11.25	-32.0	8.134
11.25	-31.75	8.1341
11.25	-31.5	8.1342
11.25	-31.25	8.1343
11.25	-31.0	8.1344
11.25	-30.75	8.1346
11.25	-30.5	8.1348
11.25	-30.25	8.135
11.25	-30.0	8.1351
11.25	-29.75	8.1352
11.25	-29.5	8.1353
11.25	-29.25	8.1354
11.25	-29.0	8.1355
11.25	-28.75	8.1356
11.25	-28.5	8.1357
11.25	-28.25	8.1358
11.25	-28.0	8.1359
11.25	-27.75	8.1362
11.25	-27.5	8.1366
11.25	-27.25	8.1369
11.25	-27.0	8.1372
11.25	-26.75	8.1375
11.25	-26.5	8.1377
11.25	-26.25	8.138
11.25	-26.0	8.1382
11.25	-25.75	8.1382
11.25	-25.5	8.1381
11.25	-25.25	8.1381
11.25	-25.0	8.1381
11.25	-24.75	8.138
11.25	-24.5	8.1379
11.25	-24.25	8.1377
11.25	-24.0	8.1375
11.25	-23.75	8.1375
11.25	-23.5	8.1377
11.25	-23.25	8.1379
11.25	-23.0	8.1383
11.25	-22.75	8.1388
11.25	-22.5	8.1393
11.25	-22.25	8.1398
11.25	-22.0	8.1401
11.25	-21.75	8.1404
11.25	-21.5	8.1408
11.25	-21.25	8.1411
11.25	-21.0	8.141
11.25	-20.75	8.1408
11.25	-20.5	8.1407
11.25	-20.25	8.141
11.25	-20.0	8.1418
11.25	-19.75	8.1427
11.25	-19.5	8.1435
11.25	-19.25	8.1442
11.25	-19.0	8.1447
11.25	-18.75	8.1453
11.25	-18.5	8.1451
11.25	-18.25	8.1447
11.25	-18.0	8.1443
11.25	-17.75	8.1441
11.25	-17.5	8.1454
11.25	-17.25	8.1467
11.25	-17.0	8.148
11.25	-16.75	8.1492
11.25	-16.5	8.1505
11.25	-16.25	8.1529
11.25	-16.0	8.1557
11.25	-15.75	8.1585
11.25	-15.5	8.1613
11.25	-15.25	8.162
11.25	-15.0	8.1622
11.25	-14.75	8.1623
11.25	-14.5	8.1625
11.25	-14.25	8.1626
11.25	-14.0	8.1628
11.25	-13.75	8.1628
11.25	-13.5	8.1629
11.25	-13.25	8.163
11.25	-13.0	8.163
11.25	-12.75	8.1628
11.25	-12.5	8.1625
11.25	-12.25	8.1624
11.25	-12.0	8.1624
11.25	-11.75	8.1624
11.25	-11.5	8.1624
11.25	-11.25	8.1624
11.25	-11.0	8.1623
11.25	-10.75	8.1623
11.25	-10.5	8.1621
11.25	-10.25	8.1619
11.25	-10.0	8.1617
11.25	-9.75	8.1617
11.25	-9.5	8.1621
11.25	-9.25	8.1624
11.25	-9.0	8.1628
11.25	-8.75	8.1631
11.25	-8.5	8.1633
11.25	-8.25	8.1635
11.25	-8.0	8.1637
11.25	-7.75	8.1639
11.25	-7.5	8.1642
11.25	-7.25	8.1645
11.25	-7.0	8.1651
11.25	-6.75	8.1656
11.25	-6.5	8.1661
11.25	-6.25	8.1666
11.25	-6.0	8.1671
11.25	-5.75	8.1675
11.25	-5.5	8.168
11.25	-5.25	8.1685
11.25	-5.0	8.1692
11.25	-4.75	8.17
11.25	-4.5	8.1708
11.25	-4.25	8.1716
11.25	-4.0	8.1726
11.25	-3.75	8.1736
11.25	-3.5	8.1746
11.25	-3.25	8.1756
11.25	-3.0	8.1766
11.25	-2.75	8.1774
11.25	-2.5	8.1777
11.25	-2.25	8.178
11.25	-2.0	8.1783
11.25	-1.75	8.1786
11.25	-1.5	8.1789
11.25	-1.25	8.1792
11.25	-1.0	8.1795
11.25	-0.75	8.1798
11.25	-0.5	8.1801
11.25	-0.25	8.1804
11.25	0.0	8.1807
11.25	0.25	8.1803
11.25	0.5	8.1798
11.25	0.75	8.1793
11.25	1.0	8.1774
11.25	1.25	8.1756
11.25	1.5	8.175
11.25	1.75	8.1743
11.25	2.0	8.1737
11.25	2.25	8.1719
11.25	2.5	8.1687
11.25	2.75	8.1655
11.25	3.0	8.1623
11.25	3.25	8.1624
11.25	3.5	8.1642
11.25	3.75	8.1562
11.25	4.0	8.1461
11.25	4.25	8.1359
11.25	4.5	8.1252
11.25	4.75	8.1146
11.25	5.0	8.1038
11.25	5.25	8.0924
11.25	5.5	8.0809
11.25	5.75	8.0735
11.25	6.0	8.0701
11.25	6.25	8.0667
11.25	6.5	8.0633
11.25	6.75	8.0601
11.25	7.0	8.0584
11.25	7.25	8.0568
11.25	7.5	8.0588
11.25	7.75	8.0615
11.25	8.0	8.0642
11.25	8.25	8.0669
11.25	8.5	8.0697
11.25	8.75	8.0724
11.25	9.0	8.075
11.25	9.25	8.0777
11.25	9.5	8.0803
11.25	9.75	8.0829
11.25	10.0	8.085
11.25	10.25	8.0864
11.25	10.5	8.0878
11.25	10.75	8.0893
11.25	11.0	8.0907
11.25	11.25	8.0921
11.25	11.5	8.0937
11.25	11.75	8.0954
11.25	12.0	8.0971
11.25	12.25	8.0988
11.25	12.5	8.1004
11.25	12.75	8.1019
11.25	13.0	8.1029
11.25	13.25	8.1038
11.25	13.5	8.1048
11.25	13.75	8.1057
11.25	14.0	8.1067
11.25	14.25	8.1075
11.25	14.5	8.1082
11.25	14.75	8.109
11.25	15.0	8.1097
11.25	15.25	8.1105
11.25	15.5	8.1112
11.25	15.75	8.1119
11.25	16.0	8.1125
11.25	16.25	8.1131
11.25	16.5	8.1138
11.25	16.75	8.1144
11.25	17.0	8.115
11.25	17.25	8.1155
11.25	17.5	8.116
11.25	17.75	8.1165
11.25	18.0	8.1169
11.25	18.25	8.1174
11.25	18.5	8.1179
11.25	18.75	8.1183
11.25	19.0	8.1188
11.25	19.25	8.1193
11.25	19.5	8.1198
11.25	19.75	8.1203
11.25	20.0	8.1208
11.25	20.25	8.1213
11.25	20.5	8.1217
11.25	20.75	8.1218
11.25	21.0	8.122
11.25	21.25	8.1221
11.25	21.5	8.1223
11.25	21.75	8.1224
11.25	22.0	8.1226
11.25	22.25	8.1227
11.25	22.5	8.1229
11.25	22.75	8.1232
11.25	23.0	8.1235
11.25	23.25	8.1238
11.25	23.5	8.1242
11.25	23.75	8.1241
11.25	24.0	8.1238
11.25	24.25	8.1235
11.25	24.5	8.123
11.25	24.75	8.1226
11.25	25.0	8.1221
11.25	25.25	8.122
11.25	25.5	8.1219
11.25	25.75	8.1218
11.25	26.0	8.1217
11.25	26.25	8.1215
11.25	26.5	8.1214
11.25	26.75	8.1213
11.25	27.0	8.1211
11.25	27.25	8.1209
11.25	27.5	8.1206
11.25	27.75	8.1203
11.25	28.0	8.1201
11.25	28.25	8.1198
11.25	28.5	8.1195
11.25	28.75	8.1192
11.25	29.0	8.1188
11.25	29.25	8.1185
11.25	29.5	8.1182
11.25	29.75	8.1178
11.25	30.0	8.1174
11.25	30.25	8.117
11.25	30.5	8.1167
11.25	30.75	8.1162
11.25	31.0	8.1156
11.25	31.25	8.115
11.25	31.5	8.1145
11.25	31.75	8.1139
11.25	32.0	8.1133
11.25	32.25	8.1126
11.25	32.5	8.1117
11.25	32.75	8.1109
11.25	33.0	8.11
11.25	33.25	8.1092
11.25	33.5	8.1084
11.25	33.75	8.1069
11.25	34.0	8.1052
11.25	34.25	8.1035
11.25	34.5	8.1013
11.25	34.75	8.0976
11.25	35.0	8.0933
11.25	35.25	8.089
11.25	35.5	8.0847
11.25	35.75	8.0802
11.25	36.0	8.0751
11.25	36.25	8.0702
11.25	36.5	8.067
11.25	36.75	8.0647
11.25	37.0	8.0626
11.25	37.25	8.0614
11.25	37.5	8.0618
11.25	37.75	8.0609
11.25	38.0	8.0582
11.25	38.25	8.0556
11.25	38.5	8.0531
11.25	38.75	8.0457
11.25	39.0	8.0389
11.25	39.25	8.0333
11.25	39.5	8.0259
11.25	39.75	8.018
11.25	40.0	8.0101
11.25	40.25	8.0026
11.25	40.5	7.997
11.25	40.75	7.9915
11.25	41.0	7.9839
11.25	41.25	7.9769
11.25	41.5	7.9774
11.25	41.75	7.9851
11.25	42.0	7.9974
11.25	42.25	8.0121
11.25	42.5	8.0242
11.25	42.75	8.0338
11.25	43.0	8.0477
11.25	43.25	8.0646
11.25	43.5	8.0411
11.25	43.75	8.0323
11.25	44.0	8.0425
11.5	-44.0	8.1286
11.5	-43.75	8.1286
11.5	-43.5	8.1285
11.5	-43.25	8.1285
11.5	-43.0	8.1285
11.5	-42.75	8.1285
11.5	-42.5	8.1285
11.5	-42.25	8.1285
11.5	-42.0	8.1285
11.5	-41.75	8.1285
11.5	-41.5	8.1285
11.5	-41.25	8.1286
11.5	-41.0	8.1286
11.5	-40.75	8.1287
11.5	-40.5	8.1288
11.5	-40.25	8.1288
11.5	-40.0	8.1289
11.5	-39.75	8.129
11.5	-39.5	8.129
11.5	-39.25	8.1291
11.5	-39.0	8.1292
11.5	-38.75	8.1293
11.5	-38.5	8.1294
11.5	-38.25	8.1295
11.5	-38.0	8.1295
11.5	-37.75	8.1297
11.5	-37.5	8.1298
11.5	-37.25	8.13
11.5	-37.0	8.1301
11.5	-36.75	8.1302
11.5	-36.5	8.1303
11.5	-36.25	8.1304
11.5	-36.0	8.1305
11.5	-35.75	8.1306
11.5	-35.5	8.1307
11.5	-35.25	8.1308
11.5	-35.0	8.131
11.5	-34.75	8.1313
11.5	-34.5	8.1317
11.5	-34.25	8.132
11.5	-34.0	8.1323
11.5	-33.75	8.1327
11.5	-33.5	8.133
11.5	-33.25	8.1332
11.5	-33.0	8.1333
11.5	-32.75	8.1335
11.5	-32.5	8.1337
11.5	-32.25	8.1339
11.5	-32.0	8.134
11.5	-31.75	8.1341
11.5	-31.5	8.1342
11.5	-31.25	8.1343
11.5	-31.0	8.1345
11.5	-30.75	8.1347
11.5	-30.5	8.1348
11.5	-30.25	8.135
11.5	-30.0	8.1351
11.5	-29.75	8.1353
11.5	-29.5	8.1354
11.5	-29.25	8.1354
11.5	-29.0	8.1355
11.5	-28.75	8.1357
11.5	-28.5	8.1357
11.5	-28.25	8.1359
11.5	-28.0	8.1362
11.5	-27.75	8.1365
11.5	-27.5	8.1368
11.5	-27.25	8.1371
11.5	-27.0	8.1375
11.5	-26.75	8.1378
11.5	-26.5	8.138
11.5	-26.25	8.1383
11.5	-26.0	8.1382
11.5	-25.75	8.1382
11.5	-25.5	8.1381
11.5	-25.25	8.1381
11.5	-25.0	8.1381
11.5	-24.75	8.138
11.5	-24.5	8.1379
11.5	-24.25	8.1377
11.5	-24.0	8.1375
11.5	-23.75	8.1373
11.5	-23.5	8.1375
11.5	-23.25	8.1377
11.5	-23.0	8.1381
11.5	-22.75	8.1386
11.5	-22.5	8.1391
11.5	-22.25	8.1396
11.5	-22.0	8.14
11.5	-21.75	8.1403
11.5	-21.5	8.1407
11.5	-21.25	8.1407
11.5	-21.0	8.1406
11.5	-20.75	8.1404
11.5	-20.5	8.1403
11.5	-20.25	8.1406
11.5	-20.0	8.1414
11.5	-19.75	8.1423
11.5	-19.5	8.1431
11.5	-19.25	8.144
11.5	-19.0	8.1445
11.5	-18.75	8.145
11.5	-18.5	8.1446
11.5	-18.25	8.1442
11.5	-18.0	8.1438
11.5	-17.75	8.1434
11.5	-17.5	8.1443
11.5	-17.25	8.1456
11.5	-17.0	8.1469
11.5	-16.75	8.1484
11.5	-16.5	8.1512
11.5	-16.25	8.154
11.5	-16.0	8.1568
11.5	-15.75	8.1596
11.5	-15.5	8.1624
11.5	-15.25	8.1633
11.5	-15.0	8.1634
11.5	-14.75	8.1635
11.5	-14.5	8.1637
11.5	-14.25	8.1638
11.5	-14.0	8.1638
11.5	-13.75	8.1639
11.5	-13.5	8.1639
11.5	-13.25	8.164
11.5	-13.0	8.1641
11.5	-12.75	8.1637
11.5	-12.5	8.1634
11.5	-12.25	8.1631
11.5	-12.0	8.1631
11.5	-11.75	8.1631
11.5	-11.5	8.1631
11.5	-11.25	8.1631
11.5	-11.0	8.1631
11.5	-10.75	8.1629
11.5	-10.5	8.1627
11.5	-10.25	8.1626
11.5	-10.0	8.1624
11.5	-9.75	8.1623
11.5	-9.5	8.1627
11.5	-9.25	8.163
11.5	-9.0	8.1634
11.5	-8.75	8.1638
11.5	-8.5	8.1641
11.5	-8.25	8.1643
11.5	-8.0	8.1645
11.5	-7.75	8.1647
11.5	-7.5	8.1649
11.5	-7.25	8.1653
11.5	-7.0	8.1659
11.5	-6.75	8.1665
11.5	-6.5	8.167
11.5	-6.25	8.1675
11.5	-6.0	8.1679
11.5	-5.75	8.1684
11.5	-5.5	8.1689
11.5	-5.25	8.1695
11.5	-5.0	8.1703
11.5	-4.75	8.1711
11.5	-4.5	8.1719
11.5	-4.25	8.1727
11.5	-4.0	8.1737
11.5	-3.75	8.1747
11.5	-3.5	8.1757
11.5	-3.25	8.1767
11.5	-3.0	8.1777
11.5	-2.75	8.1787
11.5	-2.5	8.1796
11.5	-2.25	8.1799
11.5	-2.0	8.1802
11.5	-1.75	8.1804
11.5	-1.5	8.1808
11.5	-1.25	8.181
11.5	-1.0	8.1813
11.5	-0.75	8.1816
11.5	-0.5	8.1819
11.5	-0.25	8.1822
11.5	0.0	8.1825
11.5	0.25	8.1828
11.5	0.5	8.1824
11.5	0.75	8.1819
11.5	1.0	8.18
11.5	1.25	8.1791
11.5	1.5	8.1784
11.5	1.75	8.1778
11.5	2.0	8.1771
11.5	2.25	8.1754
11.5	2.5	8.1722
11.5	2.75	8.1689
11.5	3.0	8.1673
11.5	3.25	8.1692
11.5	3.5	8.1711
11.5	3.75	8.1634
11.5	4.0	8.1532
11.5	4.25	8.1431
11.5	4.5	8.1329
11.5	4.75	8.1223
11.5	5.0	8.1115
11.5	5.25	8.1001
11.5	5.5	8.0886
11.5	5.75	8.0771
11.5	6.0	8.0698
11.5	6.25	8.0664
11.5	6.5	8.063
11.5	6.75	8.0607
11.5	7.0	8.0591
11.5	7.25	8.0575
11.5	7.5	8.058
11.5	7.75	8.0607
11.5	8.0	8.0635
11.5	8.25	8.0662
11.5	8.5	8.0689
11.5	8.75	8.0716
11.5	9.0	8.0742
11.5	9.25	8.0769
11.5	9.5	8.0795
11.5	9.75	8.0821
11.5	10.0	8.0842
11.5	10.25	8.0856
11.5	10.5	8.087
11.5	10.75	8.0884
11.5	11.0	8.0899
11.5	11.25	8.0915
11.5	11.5	8.0932
11.5	11.75	8.0949
11.5	12.0	8.0965
11.5	12.25	8.0982
11.5	12.5	8.0999
11.5	12.75	8.1014
11.5	13.0	8.1023
11.5	13.25	8.1033
11.5	13.5	8.1042
11.5	13.75	8.1052
11.5	14.0	8.1062
11.5	14.25	8.1071
11.5	14.5	8.1079
11.5	14.75	8.1086
11.5	15.0	8.1094
11.5	15.25	8.1101
11.5	15.5	8.1109
11.5	15.75	8.1115
11.5	16.0	8.1122
11.5	16.25	8.1128
11.5	16.5	8.1135
11.5	16.75	8.1141
11.5	17.0	8.1145
11.5	17.25	8.115
11.5	17.5	8.1155
11.5	17.75	8.1159
11.5	18.0	8.1164
11.5	18.25	8.1169
11.5	18.5	8.1174
11.5	18.75	8.1178
11.5	19.0	8.1183
11.5	19.25	8.1188
11.5	19.5	8.1193
11.5	19.75	8.1198
11.5	20.0	8.1202
11.5	20.25	8.1207
11.5	20.5	8.121
11.5	20.75	8.1211
11.5	21.0	8.1213
11.5	21.25	8.1214
11.5	21.5	8.1216
11.5	21.75	8.1217
11.5	22.0	8.1219
11.5	22.25	8.122
11.5	22.5	8.1222
11.5	22.75	8.1223
11.5	23.0	8.1226
11.5	23.25	8.123
11.5	23.5	8.1233
11.5	23.75	8.1234
11.5	24.0	8.1231
11.5	24.25	8.1227
11.5	24.5	8.1223
11.5	24.75	8.1218
11.5	25.0	8.1216
11.5	25.25	8.1215
11.5	25.5	8.1214
11.5	25.75	8.1213
11.5	26.0	8.1212
11.5	26.25	8.1211
11.5	26.5	8.1209
11.5	26.75	8.1208
11.5	27.0	8.1206
11.5	27.25	8.1204
11.5	27.5	8.1201
11.5	27.75	8.1198
11.5	28.0	8.1196
11.5	28.25	8.1193
11.5	28.5	8.119
11.5	28.75	8.1187
11.5	29.0	8.1184
11.5	29.25	8.1181
11.5	29.5	8.1177
11.5	29.75	8.1174
11.5	30.0	8.117
11.5	30.25	8.1166
11.5	30.5	8.1162
11.5	30.75	8.1156
11.5	31.0	8.115
11.5	31.25	8.1144
11.5	31.5	8.1139
11.5	31.75	8.1133
11.5	32.0	8.1127
11.5	32.25	8.1121
11.5	32.5	8.1112
11.5	32.75	8.1104
11.5	33.0	8.1095
11.5	33.25	8.1087
11.5	33.5	8.1078
11.5	33.75	8.107
11.5	34.0	8.1054
11.5	34.25	8.1036
11.5	34.5	8.1012
11.5	34.75	8.0979
11.5	35.0	8.0936
11.5	35.25	8.0893
11.5	35.5	8.0848
11.5	35.75	8.0802
11.5	36.0	8.0749
11.5	36.25	8.0699
11.5	36.5	8.0651
11.5	36.75	8.0604
11.5	37.0	8.0583
11.5	37.25	8.0584
11.5	37.5	8.0588
11.5	37.75	8.058
11.5	38.0	8.0552
11.5	38.25	8.0525
11.5	38.5	8.048
11.5	38.75	8.0398
11.5	39.0	8.0319
11.5	39.25	8.0252
11.5	39.5	8.0173
11.5	39.75	8.0095
11.5	40.0	8.0016
11.5	40.25	7.9948
11.5	40.5	7.9893
11.5	40.75	7.9837
11.5	41.0	7.9782
11.5	41.25	7.9732
11.5	41.5	7.9815
11.5	41.75	7.9907
11.5	42.0	8.0027
11.5	42.25	8.0148
11.5	42.5	8.027
11.5	42.75	8.0365
11.5	43.0	8.0455
11.5	43.25	8.0593
11.5	43.5	8.0332
11.5	43.75	8.0061
11.5	44.0	7.9949
11.75	-44.0	8.1286
11.75	-43.75	8.1286
11.75	-43.5	8.1286
11.75	-43.25	8.1286
11.75	-43.0	8.1286
11.75	-42.75	8.1285
11.75	-42.5	8.1285
11.75	-42.25	8.1285
11.75	-42.0	8.1285
11.75	-41.75	8.1285
11.75	-41.5	8.1285
11.75	-41.25	8.1286
11.75	-41.0	8.1287
11.75	-40.75	8.1287
11.75	-40.5	8.1288
11.75	-40.25	8.1289
11.75	-40.0	8.1289
11.75	-39.75	8.129
11.75	-39.5	8.1291
11.75	-39.25	8.1292
11.75	-39.0	8.1292
11.75	-38.75	8.1293
11.75	-38.5	8.1294
11.75	-38.25	8.1295
11.75	-38.0	8.1296
11.75	-37.75	8.1297
11.75	-37.5	8.1298
11.75	-37.25	8.13
11.75	-37.0	8.1301
11.75	-36.75	8.1302
11.75	-36.5	8.1303
11.75	-36.25	8.1304
11.75	-36.0	8.1305
11.75	-35.75	8.1306
11.75	-35.5	8.1307
11.75	-35.25	8.1308
11.75	-35.0	8.131
11.75	-34.75	8.1313
11.75	-34.5	8.1317
11.75	-34.25	8.132
11.75	-34.0	8.1323
11.75	-33.75	8.1327
11.75	-33.5	8.133
11.75	-33.25	8.1332
11.75	-33.0	8.1334
11.75	-32.75	8.1336
11.75	-32.5	8.1338
11.75	-32.25	8.1339
11.75	-32.0	8.134
11.75	-31.75	8.1341
11.75	-31.5	8.1342
11.75	-31.25	8.1343
11.75	-31.0	8.1345
11.75	-30.75	8.1347
11.75	-30.5	8.1349
11.75	-30.25	8.135
11.75	-30.0	8.1352
11.75	-29.75	8.1353
11.75	-29.5	8.1354
11.75	-29.25	8.1355
11.75	-29.0	8.1356
11.75	-28.75	8.1357
11.75	-28.5	8.1359
11.75	-28.25	8.1362
11.75	-28.0	8.1365
11.75	-27.75	8.1368
11.75	-27.5	8.1371
11.75	-27.25	8.1374
11.75	-27.0	8.1377
11.75	-26.75	8.138
11.75	-26.5	8.1383
11.75	-26.25	8.1382
11.75	-26.0	8.1382
11.75	-25.75	8.1382
11.75	-25.5	8.1381
11.75	-25.25	8.1381
11.75	-25.0	8.1381
11.75	-24.75	8.138
11.75	-24.5	8.1379
11.75	-24.25	8.1377
11.75	-24.0	8.1375
11.75	-23.75	8.1372
11.75	-23.5	8.1373
11.75	-23.25	8.1375
11.75	-23.0	8.1379
11.75	-22.75	8.1384
11.75	-22.5	8.1389
11.75	-22.25	8.1394
11.75	-22.0	8.1399
11.75	-21.75	8.1403
11.75	-21.5	8.1404
11.75	-21.25	8.1403
11.75	-21.0	8.1401
11.75	-20.75	8.14
11.75	-20.5	8.1399
11.75	-20.25	8.1402
11.75	-20.0	8.141
11.75	-19.75	8.1419
11.75	-19.5	8.1427
11.75	-19.25	8.1436
11.75	-19.0	8.1443
11.75	-18.75	8.1444
11.75	-18.5	8.144
11.75	-18.25	8.1437
11.75	-18.0	8.1433
11.75	-17.75	8.1429
11.75	-17.5	8.1432
11.75	-17.25	8.1445
11.75	-17.0	8.1467
11.75	-16.75	8.1495
11.75	-16.5	8.1523
11.75	-16.25	8.1551
11.75	-16.0	8.158
11.75	-15.75	8.1608
11.75	-15.5	8.1636
11.75	-15.25	8.1645
11.75	-15.0	8.1646
11.75	-14.75	8.1647
11.75	-14.5	8.1647
11.75	-14.25	8.1648
11.75	-14.0	8.1649
11.75	-13.75	8.1649
11.75	-13.5	8.165
11.75	-13.25	8.165
11.75	-13.0	8.165
11.75	-12.75	8.1646
11.75	-12.5	8.1643
11.75	-12.25	8.1639
11.75	-12.0	8.1639
11.75	-11.75	8.1639
11.75	-11.5	8.1639
11.75	-11.25	8.1639
11.75	-11.0	8.1637
11.75	-10.75	8.1635
11.75	-10.5	8.1634
11.75	-10.25	8.1632
11.75	-10.0	8.163
11.75	-9.75	8.163
11.75	-9.5	8.1633
11.75	-9.25	8.1637
11.75	-9.0	8.164
11.75	-8.75	8.1644
11.75	-8.5	8.1648
11.75	-8.25	8.165
11.75	-8.0	8.1652
11.75	-7.75	8.1654
11.75	-7.5	8.1656
11.75	-7.25	8.1662
11.75	-7.0	8.1667
11.75	-6.75	8.1673
11.75	-6.5	8.1679
11.75	-6.25	8.1683
11.75	-6.0	8.1688
11.75	-5.75	8.1692
11.75	-5.5	8.1698
11.75	-5.25	8.1706
11.75	-5.0	8.1714
11.75	-4.75	8.1722
11.75	-4.5	8.173
11.75	-4.25	8.1738
11.75	-4.0	8.1748
11.75	-3.75	8.1758
11.75	-3.5	8.1768
11.75	-3.25	8.1778
11.75	-3.0	8.1788
11.75	-2.75	8.1799
11.75	-2.5	8.1809
11.75	-2.25	8.1817
11.75	-2.0	8.182
11.75	-1.75	8.1823
11.75	-1.5	8.1826
11.75	-1.25	8.1829
11.75	-1.0	8.1832
11.75	-0.75	8.1835
11.75	-0.5	8.1838
11.75	-0.25	8.184
11.75	0.0	8.1843
11.75	0.25	8.1846
11.75	0.5	8.1849
11.75	0.75	8.1846
11.75	1.0	8.1832
11.75	1.25	8.1825
11.75	1.5	8.1819
11.75	1.75	8.1812
11.75	2.0	8.1806
11.75	2.25	8.1788
11.75	2.5	8.1756
11.75	2.75	8.1724
11.75	3.0	8.1741
11.75	3.25	8.176
11.75	3.5	8.1779
11.75	3.75	8.1705
11.75	4.0	8.1604
11.75	4.25	8.1503
11.75	4.5	8.1402
11.75	4.75	8.13
11.75	5.0	8.1192
11.75	5.25	8.1077
11.75	5.5	8.0963
11.75	5.75	8.0848
11.75	6.0	8.0734
11.75	6.25	8.0661
11.75	6.5	8.063
11.75	6.75	8.0614
11.75	7.0	8.0597
11.75	7.25	8.0581
11.75	7.5	8.0573
11.75	7.75	8.06
11.75	8.0	8.0627
11.75	8.25	8.0654
11.75	8.5	8.0682
11.75	8.75	8.0708
11.75	9.0	8.0734
11.75	9.25	8.076
11.75	9.5	8.0787
11.75	9.75	8.0813
11.75	10.0	8.0834
11.75	10.25	8.0848
11.75	10.5	8.0862
11.75	10.75	8.0876
11.75	11.0	8.0893
11.75	11.25	8.0909
11.75	11.5	8.0926
11.75	11.75	8.0943
11.75	12.0	8.096
11.75	12.25	8.0977
11.75	12.5	8.0994
11.75	12.75	8.1008
11.75	13.0	8.1018
11.75	13.25	8.1027
11.75	13.5	8.1037
11.75	13.75	8.1047
11.75	14.0	8.1056
11.75	14.25	8.1066
11.75	14.5	8.1075
11.75	14.75	8.1083
11.75	15.0	8.1091
11.75	15.25	8.1098
11.75	15.5	8.1105
11.75	15.75	8.1112
11.75	16.0	8.1118
11.75	16.25	8.1125
11.75	16.5	8.1131
11.75	16.75	8.1136
11.75	17.0	8.114
11.75	17.25	8.1145
11.75	17.5	8.115
11.75	17.75	8.1154
11.75	18.0	8.1159
11.75	18.25	8.1164
11.75	18.5	8.1168
11.75	18.75	8.1173
11.75	19.0	8.1178
11.75	19.25	8.1182
11.75	19.5	8.1187
11.75	19.75	8.1192
11.75	20.0	8.1197
11.75	20.25	8.1201
11.75	20.5	8.1203
11.75	20.75	8.1204
11.75	21.0	8.1206
11.75	21.25	8.1207
11.75	21.5	8.1209
11.75	21.75	8.121
11.75	22.0	8.1212
11.75	22.25	8.1213
11.75	22.5	8.1215
11.75	22.75	8.1216
11.75	23.0	8.1218
11.75	23.25	8.1221
11.75	23.5	8.1224
11.75	23.75	8.1227
11.75	24.0	8.1223
11.75	24.25	8.122
11.75	24.5	8.1215
11.75	24.75	8.1212
11.75	25.0	8.1211
11.75	25.25	8.121
11.75	25.5	8.1209
11.75	25.75	8.1208
11.75	26.0	8.1207
11.75	26.25	8.1206
11.75	26.5	8.1204
11.75	26.75	8.1203
11.75	27.0	8.1201
11.75	27.25	8.1199
11.75	27.5	8.1196
11.75	27.75	8.1193
11.75	28.0	8.119
11.75	28.25	8.1188
11.75	28.5	8.1185
11.75	28.75	8.1182
11.75	29.0	8.1179
11.75	29.25	8.1176
11.75	29.5	8.1173
11.75	29.75	8.1169
11.75	30.0	8.1165
11.75	30.25	8.1161
11.75	30.5	8.1155
11.75	30.75	8.115
11.75	31.0	8.1144
11.75	31.25	8.1138
11.75	31.5	8.1132
11.75	31.75	8.1127
11.75	32.0	8.1121
11.75	32.25	8.1115
11.75	32.5	8.1107
11.75	32.75	8.1099
11.75	33.0	8.109
11.75	33.25	8.1082
11.75	33.5	8.1073
11.75	33.75	8.1065
11.75	34.0	8.1056
11.75	34.25	8.1037
11.75	34.5	8.101
11.75	34.75	8.0982
11.75	35.0	8.094
11.75	35.25	8.0894
11.75	35.5	8.0849
11.75	35.75	8.08
11.75	36.0	8.0747
11.75	36.25	8.0696
11.75	36.5	8.0648
11.75	36.75	8.06
11.75	37.0	8.0565
11.75	37.25	8.0569
11.75	37.5	8.0573
11.75	37.75	8.0547
11.75	38.0	8.0515
11.75	38.25	8.0488
11.75	38.5	8.0428
11.75	38.75	8.0347
11.75	39.0	8.0254
11.75	39.25	8.017
11.75	39.5	8.0091
11.75	39.75	8.0012
11.75	40.0	7.9928
11.75	40.25	7.9856
11.75	40.5	7.9801
11.75	40.75	7.9745
11.75	41.0	7.9702
11.75	41.25	7.975
11.75	41.5	7.9841
11.75	41.75	7.9934
11.75	42.0	8.0053
11.75	42.25	8.0174
11.75	42.5	8.0292
11.75	42.75	8.0386
11.75	43.0	8.0475
11.75	43.25	8.0471
11.75	43.5	8.0124
11.75	43.75	7.9834
11.75	44.0	7.9572
12.0	-44.0	8.1287
12.0	-43.75	8.1287
12.0	-43.5	8.1287
12.0	-43.25	8.1286
12.0	-43.0	8.1286
12.0	-42.75	8.1286
12.0	-42.5	8.1286
12.0	-42.25	8.1286
12.0	-42.0	8.1286
12.0	-41.75	8.1286
12.0	-41.5	8.1286
12.0	-41.25	8.1286
12.0	-41.0	8.1287
12.0	-40.75	8.1288
12.0	-40.5	8.1289
12.0	-40.25	8.1289
12.0	-40.0	8.129
12.0	-39.75	8.1291
12.0	-39.5	8.1291
12.0	-39.25	8.1292
12.0	-39.0	8.1293
12.0	-38.75	8.1293
12.0	-38.5	8.1294
12.0	-38.25	8.1295
12.0	-38.0	8.1296
12.0	-37.75	8.1297
12.0	-37.5	8.1299
12.0	-37.25	8.13
12.0	-37.0	8.1301
12.0	-36.75	8.1302
12.0	-36.5	8.1303
12.0	-36.25	8.1304
12.0	-36.0	8.1305
12.0	-35.75	8.1306
12.0	-35.5	8.1307
12.0	-35.25	8.1308
12.0	-35.0	8.131
12.0	-34.75	8.1313
12.0	-34.5	8.1316
12.0	-34.25	8.132
12.0	-34.0	8.1323
12.0	-33.75	8.1327
12.0	-33.5	8.133
12.0	-33.25	8.1333
12.0	-33.0	8.1335
12.0	-32.75	8.1337
12.0	-32.5	8.1338
12.0	-32.25	8.1339
12.0	-32.0	8.134
12.0	-31.75	8.1341
12.0	-31.5	8.1342
12.0	-31.25	8.1343
12.0	-31.0	8.1345
12.0	-30.75	8.1347
12.0	-30.5	8.1349
12.0	-30.25	8.1351
12.0	-30.0	8.1352
12.0	-29.75	8.1354
12.0	-29.5	8.1355
12.0	-29.25	8.1356
12.0	-29.0	8.1357
12.0	-28.75	8.1358
12.0	-28.5	8.1361
12.0	-28.25	8.1365
12.0	-28.0	8.1368
12.0	-27.75	8.1371
12.0	-27.5	8.1374
12.0	-27.25	8.1377
12.0	-27.0	8.138
12.0	-26.75	8.1383
12.0	-26.5	8.1383
12.0	-26.25	8.1382
12.0	-26.0	8.1382
12.0	-25.75	8.1382
12.0	-25.5	8.1381
12.0	-25.25	8.1381
12.0	-25.0	8.138
12.0	-24.75	8.138
12.0	-24.5	8.1379
12.0	-24.25	8.1377
12.0	-24.0	8.1375
12.0	-23.75	8.1372
12.0	-23.5	8.1371
12.0	-23.25	8.1373
12.0	-23.0	8.1377
12.0	-22.75	8.1382
12.0	-22.5	8.1387
12.0	-22.25	8.1392
12.0	-22.0	8.1397
12.0	-21.75	8.1401
12.0	-21.5	8.14
12.0	-21.25	8.1399
12.0	-21.0	8.1397
12.0	-20.75	8.1396
12.0	-20.5	8.1394
12.0	-20.25	8.1398
12.0	-20.0	8.1406
12.0	-19.75	8.1415
12.0	-19.5	8.1423
12.0	-19.25	8.1432
12.0	-19.0	8.144
12.0	-18.75	8.1439
12.0	-18.5	8.1435
12.0	-18.25	8.1431
12.0	-18.0	8.1427
12.0	-17.75	8.1423
12.0	-17.5	8.1422
12.0	-17.25	8.145
12.0	-17.0	8.1477
12.0	-16.75	8.1505
12.0	-16.5	8.1533
12.0	-16.25	8.156
12.0	-16.0	8.1588
12.0	-15.75	8.1616
12.0	-15.5	8.1643
12.0	-15.25	8.1656
12.0	-15.0	8.1657
12.0	-14.75	8.1657
12.0	-14.5	8.1658
12.0	-14.25	8.1658
12.0	-14.0	8.1659
12.0	-13.75	8.166
12.0	-13.5	8.166
12.0	-13.25	8.1661
12.0	-13.0	8.1659
12.0	-12.75	8.1655
12.0	-12.5	8.1652
12.0	-12.25	8.1648
12.0	-12.0	8.1647
12.0	-11.75	8.1647
12.0	-11.5	8.1647
12.0	-11.25	8.1645
12.0	-11.0	8.1644
12.0	-10.75	8.1642
12.0	-10.5	8.164
12.0	-10.25	8.1638
12.0	-10.0	8.1637
12.0	-9.75	8.1636
12.0	-9.5	8.164
12.0	-9.25	8.1643
12.0	-9.0	8.1647
12.0	-8.75	8.165
12.0	-8.5	8.1654
12.0	-8.25	8.1658
12.0	-8.0	8.166
12.0	-7.75	8.1662
12.0	-7.5	8.1665
12.0	-7.25	8.167
12.0	-7.0	8.1676
12.0	-6.75	8.1681
12.0	-6.5	8.1687
12.0	-6.25	8.1692
12.0	-6.0	8.1696
12.0	-5.75	8.1701
12.0	-5.5	8.1709
12.0	-5.25	8.1717
12.0	-5.0	8.1725
12.0	-4.75	8.1733
12.0	-4.5	8.1742
12.0	-4.25	8.175
12.0	-4.0	8.1759
12.0	-3.75	8.1769
12.0	-3.5	8.1779
12.0	-3.25	8.179
12.0	-3.0	8.18
12.0	-2.75	8.181
12.0	-2.5	8.182
12.0	-2.25	8.183
12.0	-2.0	8.1838
12.0	-1.75	8.1841
12.0	-1.5	8.1844
12.0	-1.25	8.1847
12.0	-1.0	8.185
12.0	-0.75	8.1853
12.0	-0.5	8.1856
12.0	-0.25	8.1859
12.0	0.0	8.1862
12.0	0.25	8.1865
12.0	0.5	8.1868
12.0	0.75	8.187
12.0	1.0	8.1866
12.0	1.25	8.186
12.0	1.5	8.1853
12.0	1.75	8.1847
12.0	2.0	8.184
12.0	2.25	8.1823
12.0	2.5	8.179
12.0	2.75	8.1791
12.0	3.0	8.1809
12.0	3.25	8.1828
12.0	3.5	8.1847
12.0	3.75	8.177
12.0	4.0	8.1668
12.0	4.25	8.1566
12.0	4.5	8.1464
12.0	4.75	8.1362
12.0	5.0	8.1263
12.0	5.25	8.1149
12.0	5.5	8.1034
12.0	5.75	8.092
12.0	6.0	8.0805
12.0	6.25	8.0691
12.0	6.5	8.0636
12.0	6.75	8.062
12.0	7.0	8.0604
12.0	7.25	8.0588
12.0	7.5	8.0571
12.0	7.75	8.0592
12.0	8.0	8.062
12.0	8.25	8.0647
12.0	8.5	8.0673
12.0	8.75	8.07
12.0	9.0	8.0726
12.0	9.25	8.0752
12.0	9.5	8.0778
12.0	9.75	8.0805
12.0	10.0	8.0826
12.0	10.25	8.084
12.0	10.5	8.0854
12.0	10.75	8.087
12.0	11.0	8.0887
12.0	11.25	8.0904
12.0	11.5	8.0921
12.0	11.75	8.0938
12.0	12.0	8.0954
12.0	12.25	8.0971
12.0	12.5	8.0988
12.0	12.75	8.1003
12.0	13.0	8.1012
12.0	13.25	8.1022
12.0	13.5	8.1032
12.0	13.75	8.1041
12.0	14.0	8.1051
12.0	14.25	8.106
12.0	14.5	8.107
12.0	14.75	8.108
12.0	15.0	8.1087
12.0	15.25	8.1095
12.0	15.5	8.1102
12.0	15.75	8.1109
12.0	16.0	8.1115
12.0	16.25	8.1121
12.0	16.5	8.1126
12.0	16.75	8.113
12.0	17.0	8.1135
12.0	17.25	8.114
12.0	17.5	8.1145
12.0	17.75	8.1149
12.0	18.0	8.1154
12.0	18.25	8.1159
12.0	18.5	8.1163
12.0	18.75	8.1168
12.0	19.0	8.1173
12.0	19.25	8.1177
12.0	19.5	8.1182
12.0	19.75	8.1187
12.0	20.0	8.1192
12.0	20.25	8.1194
12.0	20.5	8.1196
12.0	20.75	8.1197
12.0	21.0	8.1199
12.0	21.25	8.12
12.0	21.5	8.1202
12.0	21.75	8.1203
12.0	22.0	8.1205
12.0	22.25	8.1206
12.0	22.5	8.1208
12.0	22.75	8.1209
12.0	23.0	8.1211
12.0	23.25	8.1212
12.0	23.5	8.1215
12.0	23.75	8.1219
12.0	24.0	8.1216
12.0	24.25	8.1212
12.0	24.5	8.1208
12.0	24.75	8.1207
12.0	25.0	8.1206
12.0	25.25	8.1205
12.0	25.5	8.1204
12.0	25.75	8.1203
12.0	26.0	8.1202
12.0	26.25	8.1201
12.0	26.5	8.12
12.0	26.75	8.1198
12.0	27.0	8.1196
12.0	27.25	8.1194
12.0	27.5	8.1191
12.0	27.75	8.1188
12.0	28.0	8.1185
12.0	28.25	8.1183
12.0	28.5	8.118
12.0	28.75	8.1177
12.0	29.0	8.1174
12.0	29.25	8.1171
12.0	29.5	8.1168
12.0	29.75	8.1164
12.0	30.0	8.116
12.0	30.25	8.1155
12.0	30.5	8.1149
12.0	30.75	8.1144
12.0	31.0	8.1138
12.0	31.25	8.1132
12.0	31.5	8.1126
12.0	31.75	8.1121
12.0	32.0	8.1115
12.0	32.25	8.1109
12.0	32.5	8.1102
12.0	32.75	8.1094
12.0	33.0	8.1086
12.0	33.25	8.1077
12.0	33.5	8.1069
12.0	33.75	8.106
12.0	34.0	8.1052
12.0	34.25	8.1036
12.0	34.5	8.1009
12.0	34.75	8.0982
12.0	35.0	8.0941
12.0	35.25	8.0896
12.0	35.5	8.085
12.0	35.75	8.0799
12.0	36.0	8.0746
12.0	36.25	8.069
12.0	36.5	8.0646
12.0	36.75	8.0599
12.0	37.0	8.0564
12.0	37.25	8.0567
12.0	37.5	8.0565
12.0	37.75	8.054
12.0	38.0	8.0475
12.0	38.25	8.0445
12.0	38.5	8.0383
12.0	38.75	8.029
12.0	39.0	8.0176
12.0	39.25	8.0092
12.0	39.5	8.0013
12.0	39.75	7.9918
12.0	40.0	7.9821
12.0	40.25	7.9747
12.0	40.5	7.9691
12.0	40.75	7.9685
12.0	41.0	7.9708
12.0	41.25	7.9752
12.0	41.5	7.9843
12.0	41.75	7.9959
12.0	42.0	8.0078
12.0	42.25	8.0196
12.0	42.5	8.0303
12.0	42.75	8.0397
12.0	43.0	8.0385
12.0	43.25	8.0254
12.0	43.5	7.9839
12.0	43.75	7.9478
12.0	44.0	7.9248
12.25	-44.0	8.1288
12.25	-43.75	8.1287
12.25	-43.5	8.1287
12.25	-43.25	8.1287
12.25	-43.0	8.1287
12.25	-42.75	8.1287
12.25	-42.5	8.1287
12.25	-42.25	8.1287
12.25	-42.0	8.1287
12.25	-41.75	8.1287
12.25	-41.5	8.1287
12.25	-41.25	8.1287
12.25	-41.0	8.1288
12.25	-40.75	8.1288
12.25	-40.5	8.1289
12.25	-40.25	8.129
12.25	-40.0	8.129
12.25	-39.75	8.1291
12.25	-39.5	8.1292
12.25	-39.25	8.1292
12.25	-39.0	8.1293
12.25	-38.75	8.1294
12.25	-38.5	8.1294
12.25	-38.25	8.1295
12.25	-38.0	8.1296
12.25	-37.75	8.1297
12.25	-37.5	8.1299
12.25	-37.25	8.13
12.25	-37.0	8.1301
12.25	-36.75	8.1302
12.25	-36.5	8.1303
12.25	-36.25	8.1304
12.25	-36.0	8.1305
12.25	-35.75	8.1306
12.25	-35.5	8.1306
12.25	-35.25	8.1308
12.25	-35.0	8.131
12.25	-34.75	8.1313
12.25	-34.5	8.1316
12.25	-34.25	8.132
12.25	-34.0	8.1323
12.25	-33.75	8.1327
12.25	-33.5	8.133
12.25	-33.25	8.1334
12.25	-33.0	8.1336
12.25	-32.75	8.1337
12.25	-32.5	8.1339
12.25	-32.25	8.1339
12.25	-32.0	8.134
12.25	-31.75	8.1341
12.25	-31.5	8.1342
12.25	-31.25	8.1344
12.25	-31.0	8.1346
12.25	-30.75	8.1347
12.25	-30.5	8.1349
12.25	-30.25	8.1351
12.25	-30.0	8.1353
12.25	-29.75	8.1354
12.25	-29.5	8.1355
12.25	-29.25	8.1356
12.25	-29.0	8.1358
12.25	-28.75	8.1361
12.25	-28.5	8.1364
12.25	-28.25	8.1367
12.25	-28.0	8.137
12.25	-27.75	8.1373
12.25	-27.5	8.1376
12.25	-27.25	8.1378
12.25	-27.0	8.1381
12.25	-26.75	8.1383
12.25	-26.5	8.1383
12.25	-26.25	8.1382
12.25	-26.0	8.1382
12.25	-25.75	8.1382
12.25	-25.5	8.1381
12.25	-25.25	8.1381
12.25	-25.0	8.138
12.25	-24.75	8.138
12.25	-24.5	8.1379
12.25	-24.25	8.1377
12.25	-24.0	8.1374
12.25	-23.75	8.1372
12.25	-23.5	8.137
12.25	-23.25	8.1371
12.25	-23.0	8.1375
12.25	-22.75	8.138
12.25	-22.5	8.1385
12.25	-22.25	8.1389
12.25	-22.0	8.139
12.25	-21.75	8.1391
12.25	-21.5	8.1392
12.25	-21.25	8.1394
12.25	-21.0	8.1393
12.25	-20.75	8.1392
12.25	-20.5	8.139
12.25	-20.25	8.1394
12.25	-20.0	8.1402
12.25	-19.75	8.1411
12.25	-19.5	8.1419
12.25	-19.25	8.142
12.25	-19.0	8.1421
12.25	-18.75	8.1415
12.25	-18.5	8.1409
12.25	-18.25	8.1405
12.25	-18.0	8.1401
12.25	-17.75	8.1397
12.25	-17.5	8.1397
12.25	-17.25	8.1425
12.25	-17.0	8.1453
12.25	-16.75	8.148
12.25	-16.5	8.1508
12.25	-16.25	8.1536
12.25	-16.0	8.1563
12.25	-15.75	8.1614
12.25	-15.5	8.1667
12.25	-15.25	8.168
12.25	-15.0	8.1675
12.25	-14.75	8.1671
12.25	-14.5	8.1668
12.25	-14.25	8.1669
12.25	-14.0	8.1669
12.25	-13.75	8.167
12.25	-13.5	8.1671
12.25	-13.25	8.1671
12.25	-13.0	8.1668
12.25	-12.75	8.1664
12.25	-12.5	8.1661
12.25	-12.25	8.1657
12.25	-12.0	8.1655
12.25	-11.75	8.1654
12.25	-11.5	8.1654
12.25	-11.25	8.1652
12.25	-11.0	8.165
12.25	-10.75	8.1648
12.25	-10.5	8.1647
12.25	-10.25	8.1645
12.25	-10.0	8.1643
12.25	-9.75	8.1642
12.25	-9.5	8.1646
12.25	-9.25	8.165
12.25	-9.0	8.1653
12.25	-8.75	8.1657
12.25	-8.5	8.166
12.25	-8.25	8.1664
12.25	-8.0	8.1667
12.25	-7.75	8.1669
12.25	-7.5	8.1673
12.25	-7.25	8.1679
12.25	-7.0	8.1684
12.25	-6.75	8.169
12.25	-6.5	8.1695
12.25	-6.25	8.17
12.25	-6.0	8.1705
12.25	-5.75	8.1713
12.25	-5.5	8.1721
12.25	-5.25	8.1729
12.25	-5.0	8.1737
12.25	-4.75	8.1745
12.25	-4.5	8.1753
12.25	-4.25	8.1761
12.25	-4.0	8.177
12.25	-3.75	8.178
12.25	-3.5	8.1791
12.25	-3.25	8.1801
12.25	-3.0	8.1811
12.25	-2.75	8.1821
12.25	-2.5	8.1831
12.25	-2.25	8.1841
12.25	-2.0	8.1851
12.25	-1.75	8.186
12.25	-1.5	8.1863
12.25	-1.25	8.1866
12.25	-1.0	8.1869
12.25	-0.75	8.1871
12.25	-0.5	8.1874
12.25	-0.25	8.1877
12.25	0.0	8.1879
12.25	0.25	8.1881
12.25	0.5	8.1883
12.25	0.75	8.1884
12.25	1.0	8.1888
12.25	1.25	8.1892
12.25	1.5	8.1888
12.25	1.75	8.1881
12.25	2.0	8.1875
12.25	2.25	8.1857
12.25	2.5	8.184
12.25	2.75	8.1859
12.25	3.0	8.1878
12.25	3.25	8.1865
12.25	3.5	8.1851
12.25	3.75	8.1771
12.25	4.0	8.1669
12.25	4.25	8.1567
12.25	4.5	8.1465
12.25	4.75	8.1375
12.25	5.0	8.1302
12.25	5.25	8.1187
12.25	5.5	8.1073
12.25	5.75	8.0958
12.25	6.0	8.0844
12.25	6.25	8.0739
12.25	6.5	8.0678
12.25	6.75	8.0639
12.25	7.0	8.061
12.25	7.25	8.0594
12.25	7.5	8.0578
12.25	7.75	8.0585
12.25	8.0	8.0612
12.25	8.25	8.0639
12.25	8.5	8.0665
12.25	8.75	8.0691
12.25	9.0	8.0718
12.25	9.25	8.0744
12.25	9.5	8.077
12.25	9.75	8.0797
12.25	10.0	8.0818
12.25	10.25	8.0832
12.25	10.5	8.0848
12.25	10.75	8.0865
12.25	11.0	8.0882
12.25	11.25	8.0898
12.25	11.5	8.0915
12.25	11.75	8.0932
12.25	12.0	8.0949
12.25	12.25	8.0966
12.25	12.5	8.0983
12.25	12.75	8.0997
12.25	13.0	8.1007
12.25	13.25	8.1017
12.25	13.5	8.1026
12.25	13.75	8.1036
12.25	14.0	8.1045
12.25	14.25	8.1055
12.25	14.5	8.1065
12.25	14.75	8.1074
12.25	15.0	8.1084
12.25	15.25	8.1091
12.25	15.5	8.1099
12.25	15.75	8.1105
12.25	16.0	8.1111
12.25	16.25	8.1116
12.25	16.5	8.1121
12.25	16.75	8.1125
12.25	17.0	8.113
12.25	17.25	8.1135
12.25	17.5	8.1139
12.25	17.75	8.1144
12.25	18.0	8.1149
12.25	18.25	8.1154
12.25	18.5	8.1158
12.25	18.75	8.1163
12.25	19.0	8.1168
12.25	19.25	8.1172
12.25	19.5	8.1177
12.25	19.75	8.1182
12.25	20.0	8.1186
12.25	20.25	8.1187
12.25	20.5	8.1189
12.25	20.75	8.119
12.25	21.0	8.1192
12.25	21.25	8.1193
12.25	21.5	8.1195
12.25	21.75	8.1196
12.25	22.0	8.1198
12.25	22.25	8.1199
12.25	22.5	8.1201
12.25	22.75	8.1202
12.25	23.0	8.1204
12.25	23.25	8.1205
12.25	23.5	8.1207
12.25	23.75	8.121
12.25	24.0	8.1209
12.25	24.25	8.1205
12.25	24.5	8.1204
12.25	24.75	8.1202
12.25	25.0	8.1201
12.25	25.25	8.12
12.25	25.5	8.1199
12.25	25.75	8.1198
12.25	26.0	8.1197
12.25	26.25	8.1196
12.25	26.5	8.1195
12.25	26.75	8.1193
12.25	27.0	8.1191
12.25	27.25	8.1188
12.25	27.5	8.1186
12.25	27.75	8.1183
12.25	28.0	8.118
12.25	28.25	8.1177
12.25	28.5	8.1175
12.25	28.75	8.1172
12.25	29.0	8.1169
12.25	29.25	8.1167
12.25	29.5	8.1163
12.25	29.75	8.116
12.25	30.0	8.1155
12.25	30.25	8.1149
12.25	30.5	8.1143
12.25	30.75	8.1138
12.25	31.0	8.1132
12.25	31.25	8.1126
12.25	31.5	8.1121
12.25	31.75	8.1116
12.25	32.0	8.1112
12.25	32.25	8.1107
12.25	32.5	8.11
12.25	32.75	8.1092
12.25	33.0	8.1083
12.25	33.25	8.1075
12.25	33.5	8.1066
12.25	33.75	8.1058
12.25	34.0	8.105
12.25	34.25	8.1039
12.25	34.5	8.1012
12.25	34.75	8.0985
12.25	35.0	8.0946
12.25	35.25	8.0901
12.25	35.5	8.0855
12.25	35.75	8.0796
12.25	36.0	8.0743
12.25	36.25	8.0687
12.25	36.5	8.0601
12.25	36.75	8.0593
12.25	37.0	8.0562
12.25	37.25	8.056
12.25	37.5	8.0556
12.25	37.75	8.0532
12.25	38.0	8.0467
12.25	38.25	8.0403
12.25	38.5	8.0325
12.25	38.75	8.0211
12.25	39.0	8.0098
12.25	39.25	8.0006
12.25	39.5	7.9909
12.25	39.75	7.9811
12.25	40.0	7.9714
12.25	40.25	7.9645
12.25	40.5	7.9668
12.25	40.75	7.9691
12.25	41.0	7.9713
12.25	41.25	7.9755
12.25	41.5	7.9868
12.25	41.75	7.9984
12.25	42.0	8.01
12.25	42.25	8.0207
12.25	42.5	8.0313
12.25	42.75	8.0298
12.25	43.0	8.0167
12.25	43.25	8.0036
12.25	43.5	7.9642
12.25	43.75	7.9202
12.25	44.0	7.8924
12.5	-44.0	8.1288
12.5	-43.75	8.1288
12.5	-43.5	8.1288
12.5	-43.25	8.1288
12.5	-43.0	8.1287
12.5	-42.75	8.1287
12.5	-42.5	8.1287
12.5	-42.25	8.1287
12.5	-42.0	8.1287
12.5	-41.75	8.1287
12.5	-41.5	8.1287
12.5	-41.25	8.1287
12.5	-41.0	8.1288
12.5	-40.75	8.1289
12.5	-40.5	8.1289
12.5	-40.25	8.129
12.5	-40.0	8.1291
12.5	-39.75	8.1291
12.5	-39.5	8.1292
12.5	-39.25	8.1293
12.5	-39.0	8.1293
12.5	-38.75	8.1294
12.5	-38.5	8.1295
12.5	-38.25	8.1296
12.5	-38.0	8.1296
12.5	-37.75	8.1298
12.5	-37.5	8.1299
12.5	-37.25	8.1299
12.5	-37.0	8.13
12.5	-36.75	8.1302
12.5	-36.5	8.1303
12.5	-36.25	8.1303
12.5	-36.0	8.1304
12.5	-35.75	8.1305
12.5	-35.5	8.1306
12.5	-35.25	8.1307
12.5	-35.0	8.1309
12.5	-34.75	8.1313
12.5	-34.5	8.1316
12.5	-34.25	8.132
12.5	-34.0	8.1323
12.5	-33.75	8.1327
12.5	-33.5	8.133
12.5	-33.25	8.1334
12.5	-33.0	8.1336
12.5	-32.75	8.1338
12.5	-32.5	8.1339
12.5	-32.25	8.1339
12.5	-32.0	8.134
12.5	-31.75	8.1341
12.5	-31.5	8.1342
12.5	-31.25	8.1344
12.5	-31.0	8.1346
12.5	-30.75	8.1348
12.5	-30.5	8.1349
12.5	-30.25	8.1351
12.5	-30.0	8.1353
12.5	-29.75	8.1355
12.5	-29.5	8.1356
12.5	-29.25	8.1358
12.5	-29.0	8.1361
12.5	-28.75	8.1364
12.5	-28.5	8.1366
12.5	-28.25	8.1369
12.5	-28.0	8.1371
12.5	-27.75	8.1374
12.5	-27.5	8.1376
12.5	-27.25	8.1378
12.5	-27.0	8.1381
12.5	-26.75	8.1383
12.5	-26.5	8.1383
12.5	-26.25	8.1383
12.5	-26.0	8.1382
12.5	-25.75	8.1382
12.5	-25.5	8.1381
12.5	-25.25	8.1381
12.5	-25.0	8.138
12.5	-24.75	8.138
12.5	-24.5	8.1379
12.5	-24.25	8.1377
12.5	-24.0	8.1374
12.5	-23.75	8.1372
12.5	-23.5	8.137
12.5	-23.25	8.1369
12.5	-23.0	8.1373
12.5	-22.75	8.1377
12.5	-22.5	8.1378
12.5	-22.25	8.1378
12.5	-22.0	8.1379
12.5	-21.75	8.138
12.5	-21.5	8.1382
12.5	-21.25	8.1384
12.5	-21.0	8.1385
12.5	-20.75	8.1387
12.5	-20.5	8.1386
12.5	-20.25	8.139
12.5	-20.0	8.1398
12.5	-19.75	8.1398
12.5	-19.5	8.1399
12.5	-19.25	8.1399
12.5	-19.0	8.1399
12.5	-18.75	8.1394
12.5	-18.5	8.1386
12.5	-18.25	8.1379
12.5	-18.0	8.1375
12.5	-17.75	8.1371
12.5	-17.5	8.1373
12.5	-17.25	8.1401
12.5	-17.0	8.1428
12.5	-16.75	8.1456
12.5	-16.5	8.1484
12.5	-16.25	8.1534
12.5	-16.0	8.1587
12.5	-15.75	8.1639
12.5	-15.5	8.1692
12.5	-15.25	8.1705
12.5	-15.0	8.1701
12.5	-14.75	8.1696
12.5	-14.5	8.1692
12.5	-14.25	8.1688
12.5	-14.0	8.1683
12.5	-13.75	8.168
12.5	-13.5	8.1681
12.5	-13.25	8.1681
12.5	-13.0	8.1677
12.5	-12.75	8.1673
12.5	-12.5	8.1669
12.5	-12.25	8.1666
12.5	-12.0	8.1662
12.5	-11.75	8.1662
12.5	-11.5	8.166
12.5	-11.25	8.1658
12.5	-11.0	8.1656
12.5	-10.75	8.1655
12.5	-10.5	8.1653
12.5	-10.25	8.1651
12.5	-10.0	8.1649
12.5	-9.75	8.1649
12.5	-9.5	8.1652
12.5	-9.25	8.1656
12.5	-9.0	8.166
12.5	-8.75	8.1663
12.5	-8.5	8.1667
12.5	-8.25	8.167
12.5	-8.0	8.1674
12.5	-7.75	8.1677
12.5	-7.5	8.1681
12.5	-7.25	8.1687
12.5	-7.0	8.1693
12.5	-6.75	8.1698
12.5	-6.5	8.1704
12.5	-6.25	8.1709
12.5	-6.0	8.1716
12.5	-5.75	8.1724
12.5	-5.5	8.1732
12.5	-5.25	8.174
12.5	-5.0	8.1748
12.5	-4.75	8.1756
12.5	-4.5	8.1764
12.5	-4.25	8.1772
12.5	-4.0	8.1781
12.5	-3.75	8.1792
12.5	-3.5	8.1802
12.5	-3.25	8.1812
12.5	-3.0	8.1822
12.5	-2.75	8.1832
12.5	-2.5	8.1842
12.5	-2.25	8.1852
12.5	-2.0	8.1862
12.5	-1.75	8.1873
12.5	-1.5	8.1881
12.5	-1.25	8.1884
12.5	-1.0	8.1887
12.5	-0.75	8.1889
12.5	-0.5	8.1891
12.5	-0.25	8.1892
12.5	0.0	8.1894
12.5	0.25	8.1895
12.5	0.5	8.1897
12.5	0.75	8.1899
12.5	1.0	8.1902
12.5	1.25	8.1906
12.5	1.5	8.191
12.5	1.75	8.1914
12.5	2.0	8.1909
12.5	2.25	8.1891
12.5	2.5	8.1908
12.5	2.75	8.1895
12.5	3.0	8.1881
12.5	3.25	8.1866
12.5	3.5	8.1852
12.5	3.75	8.1772
12.5	4.0	8.167
12.5	4.25	8.1568
12.5	4.5	8.1477
12.5	4.75	8.1413
12.5	5.0	8.134
12.5	5.25	8.1226
12.5	5.5	8.1111
12.5	5.75	8.0997
12.5	6.0	8.0892
12.5	6.25	8.079
12.5	6.5	8.0729
12.5	6.75	8.0689
12.5	7.0	8.065
12.5	7.25	8.0611
12.5	7.5	8.0584
12.5	7.75	8.0578
12.5	8.0	8.0604
12.5	8.25	8.0631
12.5	8.5	8.0657
12.5	8.75	8.0683
12.5	9.0	8.071
12.5	9.25	8.0736
12.5	9.5	8.0762
12.5	9.75	8.0788
12.5	10.0	8.0809
12.5	10.25	8.0826
12.5	10.5	8.0843
12.5	10.75	8.0859
12.5	11.0	8.0876
12.5	11.25	8.0893
12.5	11.5	8.091
12.5	11.75	8.0927
12.5	12.0	8.0943
12.5	12.25	8.096
12.5	12.5	8.0977
12.5	12.75	8.0992
12.5	13.0	8.1001
12.5	13.25	8.1011
12.5	13.5	8.1021
12.5	13.75	8.103
12.5	14.0	8.104
12.5	14.25	8.105
12.5	14.5	8.1059
12.5	14.75	8.1069
12.5	15.0	8.1078
12.5	15.25	8.1088
12.5	15.5	8.1096
12.5	15.75	8.1102
12.5	16.0	8.1106
12.5	16.25	8.1111
12.5	16.5	8.1116
12.5	16.75	8.112
12.5	17.0	8.1125
12.5	17.25	8.113
12.5	17.5	8.1134
12.5	17.75	8.1139
12.5	18.0	8.1144
12.5	18.25	8.1148
12.5	18.5	8.1153
12.5	18.75	8.1158
12.5	19.0	8.1162
12.5	19.25	8.1167
12.5	19.5	8.1172
12.5	19.75	8.1177
12.5	20.0	8.1179
12.5	20.25	8.118
12.5	20.5	8.1182
12.5	20.75	8.1183
12.5	21.0	8.1185
12.5	21.25	8.1186
12.5	21.5	8.1188
12.5	21.75	8.1189
12.5	22.0	8.1191
12.5	22.25	8.1192
12.5	22.5	8.1194
12.5	22.75	8.1195
12.5	23.0	8.1197
12.5	23.25	8.1198
12.5	23.5	8.12
12.5	23.75	8.1201
12.5	24.0	8.1202
12.5	24.25	8.12
12.5	24.5	8.1199
12.5	24.75	8.1198
12.5	25.0	8.1196
12.5	25.25	8.1195
12.5	25.5	8.1194
12.5	25.75	8.1193
12.5	26.0	8.1192
12.5	26.25	8.1191
12.5	26.5	8.119
12.5	26.75	8.1189
12.5	27.0	8.1186
12.5	27.25	8.1183
12.5	27.5	8.1181
12.5	27.75	8.1178
12.5	28.0	8.1175
12.5	28.25	8.1172
12.5	28.5	8.117
12.5	28.75	8.1167
12.5	29.0	8.1164
12.5	29.25	8.1162
12.5	29.5	8.1159
12.5	29.75	8.1155
12.5	30.0	8.1149
12.5	30.25	8.1143
12.5	30.5	8.1138
12.5	30.75	8.1133
12.5	31.0	8.1128
12.5	31.25	8.1124
12.5	31.5	8.1119
12.5	31.75	8.1114
12.5	32.0	8.1109
12.5	32.25	8.1104
12.5	32.5	8.1098
12.5	32.75	8.1089
12.5	33.0	8.1081
12.5	33.25	8.1072
12.5	33.5	8.1064
12.5	33.75	8.1056
12.5	34.0	8.1049
12.5	34.25	8.1042
12.5	34.5	8.1015
12.5	34.75	8.0985
12.5	35.0	8.0949
12.5	35.25	8.0906
12.5	35.5	8.086
12.5	35.75	8.0796
12.5	36.0	8.074
12.5	36.25	8.0685
12.5	36.5	8.0552
12.5	36.75	8.0511
12.5	37.0	8.053
12.5	37.25	8.0577
12.5	37.5	8.0573
12.5	37.75	8.0567
12.5	38.0	8.0511
12.5	38.25	8.0448
12.5	38.5	8.0335
12.5	38.75	8.0221
12.5	39.0	8.0077
12.5	39.25	7.9922
12.5	39.5	7.9825
12.5	39.75	7.9728
12.5	40.0	7.963
12.5	40.25	7.9632
12.5	40.5	7.9656
12.5	40.75	7.9679
12.5	41.0	7.9702
12.5	41.25	7.9843
12.5	41.5	7.9981
12.5	41.75	8.0102
12.5	42.0	8.0217
12.5	42.25	8.0327
12.5	42.5	8.0352
12.5	42.75	8.0228
12.5	43.0	8.0081
12.5	43.25	7.9861
12.5	43.5	7.9605
12.5	43.75	7.9182
12.5	44.0	7.8856
12.75	-44.0	8.1289
12.75	-43.75	8.1289
12.75	-43.5	8.1288
12.75	-43.25	8.1288
12.75	-43.0	8.1288
12.75	-42.75	8.1288
12.75	-42.5	8.1288
12.75	-42.25	8.1288
12.75	-42.0	8.1288
12.75	-41.75	8.1288
12.75	-41.5	8.1288
12.75	-41.25	8.1288
12.75	-41.0	8.1289
12.75	-40.75	8.1289
12.75	-40.5	8.129
12.75	-40.25	8.1291
12.75	-40.0	8.1291
12.75	-39.75	8.1292
12.75	-39.5	8.1293
12.75	-39.25	8.1293
12.75	-39.0	8.1294
12.75	-38.75	8.1295
12.75	-38.5	8.1295
12.75	-38.25	8.1296
12.75	-38.0	8.1297
12.75	-37.75	8.1298
12.75	-37.5	8.1299
12.75	-37.25	8.13
12.75	-37.0	8.1301
12.75	-36.75	8.1302
12.75	-36.5	8.1303
12.75	-36.25	8.1304
12.75	-36.0	8.1305
12.75	-35.75	8.1306
12.75	-35.5	8.1306
12.75	-35.25	8.1308
12.75	-35.0	8.131
12.75	-34.75	8.1313
12.75	-34.5	8.1316
12.75	-34.25	8.132
12.75	-34.0	8.1323
12.75	-33.75	8.1327
12.75	-33.5	8.133
12.75	-33.25	8.1334
12.75	-33.0	8.1337
12.75	-32.75	8.1338
12.75	-32.5	8.1339
12.75	-32.25	8.1339
12.75	-32.0	8.134
12.75	-31.75	8.1341
12.75	-31.5	8.1343
12.75	-31.25	8.1344
12.75	-31.0	8.1346
12.75	-30.75	8.1348
12.75	-30.5	8.135
12.75	-30.25	8.1352
12.75	-30.0	8.1353
12.75	-29.75	8.1355
12.75	-29.5	8.1357
12.75	-29.25	8.1359
12.75	-29.0	8.1362
12.75	-28.75	8.1364
12.75	-28.5	8.1367
12.75	-28.25	8.1369
12.75	-28.0	8.1371
12.75	-27.75	8.1374
12.75	-27.5	8.1376
12.75	-27.25	8.1379
12.75	-27.0	8.1381
12.75	-26.75	8.1384
12.75	-26.5	8.1383
12.75	-26.25	8.1383
12.75	-26.0	8.1382
12.75	-25.75	8.1382
12.75	-25.5	8.1381
12.75	-25.25	8.1381
12.75	-25.0	8.138
12.75	-24.75	8.138
12.75	-24.5	8.1378
12.75	-24.25	8.1376
12.75	-24.0	8.1373
12.75	-23.75	8.1371
12.75	-23.5	8.1369
12.75	-23.25	8.1367
12.75	-23.0	8.1366
12.75	-22.75	8.1366
12.75	-22.5	8.1367
12.75	-22.25	8.1368
12.75	-22.0	8.1368
12.75	-21.75	8.1369
12.75	-21.5	8.1371
12.75	-21.25	8.1373
12.75	-21.0	8.1375
12.75	-20.75	8.1377
12.75	-20.5	8.1378
12.75	-20.25	8.1377
12.75	-20.0	8.1377
12.75	-19.75	8.1377
12.75	-19.5	8.1377
12.75	-19.25	8.1378
12.75	-19.0	8.1378
12.75	-18.75	8.1372
12.75	-18.5	8.1365
12.75	-18.25	8.1357
12.75	-18.0	8.135
12.75	-17.75	8.1345
12.75	-17.5	8.1348
12.75	-17.25	8.1376
12.75	-17.0	8.1404
12.75	-16.75	8.1454
12.75	-16.5	8.1506
12.75	-16.25	8.1559
12.75	-16.0	8.1612
12.75	-15.75	8.1665
12.75	-15.5	8.1718
12.75	-15.25	8.1731
12.75	-15.0	8.1726
12.75	-14.75	8.1722
12.75	-14.5	8.1717
12.75	-14.25	8.1713
12.75	-14.0	8.1709
12.75	-13.75	8.1704
12.75	-13.5	8.1696
12.75	-13.25	8.1687
12.75	-13.0	8.1683
12.75	-12.75	8.168
12.75	-12.5	8.1676
12.75	-12.25	8.1672
12.75	-12.0	8.1669
12.75	-11.75	8.1667
12.75	-11.5	8.1666
12.75	-11.25	8.1664
12.75	-11.0	8.1662
12.75	-10.75	8.166
12.75	-10.5	8.1659
12.75	-10.25	8.1657
12.75	-10.0	8.1655
12.75	-9.75	8.1655
12.75	-9.5	8.1659
12.75	-9.25	8.1662
12.75	-9.0	8.1666
12.75	-8.75	8.167
12.75	-8.5	8.1673
12.75	-8.25	8.1677
12.75	-8.0	8.168
12.75	-7.75	8.1684
12.75	-7.5	8.169
12.75	-7.25	8.1695
12.75	-7.0	8.1701
12.75	-6.75	8.1706
12.75	-6.5	8.1712
12.75	-6.25	8.1718
12.75	-6.0	8.1726
12.75	-5.75	8.1734
12.75	-5.5	8.1742
12.75	-5.25	8.175
12.75	-5.0	8.1758
12.75	-4.75	8.1766
12.75	-4.5	8.1774
12.75	-4.25	8.1782
12.75	-4.0	8.1792
12.75	-3.75	8.1803
12.75	-3.5	8.1813
12.75	-3.25	8.1823
12.75	-3.0	8.1833
12.75	-2.75	8.1843
12.75	-2.5	8.1853
12.75	-2.25	8.1863
12.75	-2.0	8.1873
12.75	-1.75	8.1883
12.75	-1.5	8.1894
12.75	-1.25	8.19
12.75	-1.0	8.1902
12.75	-0.75	8.1904
12.75	-0.5	8.1905
12.75	-0.25	8.1907
12.75	0.0	8.1908
12.75	0.25	8.191
12.75	0.5	8.1911
12.75	0.75	8.1913
12.75	1.0	8.1917
12.75	1.25	8.1921
12.75	1.5	8.1924
12.75	1.75	8.1928
12.75	2.0	8.1932
12.75	2.25	8.1925
12.75	2.5	8.191
12.75	2.75	8.1896
12.75	3.0	8.1882
12.75	3.25	8.1868
12.75	3.5	8.1853
12.75	3.75	8.1773
12.75	4.0	8.1671
12.75	4.25	8.1578
12.75	4.5	8.1514
12.75	4.75	8.145
12.75	5.0	8.1379
12.75	5.25	8.1265
12.75	5.5	8.115
12.75	5.75	8.1044
12.75	6.0	8.0943
12.75	6.25	8.0841
12.75	6.5	8.0779
12.75	6.75	8.074
12.75	7.0	8.0701
12.75	7.25	8.0661
12.75	7.5	8.0622
12.75	7.75	8.058
12.75	8.0	8.0598
12.75	8.25	8.0624
12.75	8.5	8.0651
12.75	8.75	8.0677
12.75	9.0	8.0704
12.75	9.25	8.073
12.75	9.5	8.0757
12.75	9.75	8.0783
12.75	10.0	8.0806
12.75	10.25	8.0822
12.75	10.5	8.0839
12.75	10.75	8.0856
12.75	11.0	8.0873
12.75	11.25	8.089
12.75	11.5	8.0906
12.75	11.75	8.0923
12.75	12.0	8.094
12.75	12.25	8.0957
12.75	12.5	8.0973
12.75	12.75	8.0988
12.75	13.0	8.0998
12.75	13.25	8.1007
12.75	13.5	8.1017
12.75	13.75	8.1026
12.75	14.0	8.1036
12.75	14.25	8.1046
12.75	14.5	8.1055
12.75	14.75	8.1065
12.75	15.0	8.1074
12.75	15.25	8.1084
12.75	15.5	8.1092
12.75	15.75	8.1097
12.75	16.0	8.1102
12.75	16.25	8.1106
12.75	16.5	8.1111
12.75	16.75	8.1116
12.75	17.0	8.1121
12.75	17.25	8.1125
12.75	17.5	8.113
12.75	17.75	8.1135
12.75	18.0	8.1139
12.75	18.25	8.1144
12.75	18.5	8.1149
12.75	18.75	8.1154
12.75	19.0	8.1158
12.75	19.25	8.1163
12.75	19.5	8.1168
12.75	19.75	8.1171
12.75	20.0	8.1173
12.75	20.25	8.1174
12.75	20.5	8.1176
12.75	20.75	8.1177
12.75	21.0	8.1179
12.75	21.25	8.118
12.75	21.5	8.1182
12.75	21.75	8.1184
12.75	22.0	8.1185
12.75	22.25	8.1187
12.75	22.5	8.1188
12.75	22.75	8.119
12.75	23.0	8.1191
12.75	23.25	8.1193
12.75	23.5	8.1194
12.75	23.75	8.1196
12.75	24.0	8.1196
12.75	24.25	8.1195
12.75	24.5	8.1194
12.75	24.75	8.1193
12.75	25.0	8.1192
12.75	25.25	8.1191
12.75	25.5	8.119
12.75	25.75	8.1189
12.75	26.0	8.1188
12.75	26.25	8.1186
12.75	26.5	8.1185
12.75	26.75	8.1184
12.75	27.0	8.1182
12.75	27.25	8.1179
12.75	27.5	8.1176
12.75	27.75	8.1174
12.75	28.0	8.1171
12.75	28.25	8.1168
12.75	28.5	8.1165
12.75	28.75	8.1163
12.75	29.0	8.116
12.75	29.25	8.1157
12.75	29.5	8.1154
12.75	29.75	8.115
12.75	30.0	8.1145
12.75	30.25	8.114
12.75	30.5	8.1136
12.75	30.75	8.1131
12.75	31.0	8.1126
12.75	31.25	8.1121
12.75	31.5	8.1116
12.75	31.75	8.1112
12.75	32.0	8.1107
12.75	32.25	8.1102
12.75	32.5	8.1095
12.75	32.75	8.1087
12.75	33.0	8.1078
12.75	33.25	8.107
12.75	33.5	8.1063
12.75	33.75	8.1055
12.75	34.0	8.1048
12.75	34.25	8.104
12.75	34.5	8.1019
12.75	34.75	8.0986
12.75	35.0	8.095
12.75	35.25	8.0911
12.75	35.5	8.0866
12.75	35.75	8.0801
12.75	36.0	8.0737
12.75	36.25	8.0684
12.75	36.5	8.0551
12.75	36.75	8.043
12.75	37.0	8.0452
12.75	37.25	8.0552
12.75	37.5	8.0603
12.75	37.75	8.0597
12.75	38.0	8.0577
12.75	38.25	8.0509
12.75	38.5	8.0381
12.75	38.75	8.0258
12.75	39.0	8.0061
12.75	39.25	7.99
12.75	39.5	7.975
12.75	39.75	7.9653
12.75	40.0	7.9595
12.75	40.25	7.9613
12.75	40.5	7.9635
12.75	40.75	7.9658
12.75	41.0	7.9795
12.75	41.25	7.9953
12.75	41.5	8.0121
12.75	41.75	8.026
12.75	42.0	8.0375
12.75	42.25	8.0404
12.75	42.5	8.0339
12.75	42.75	8.0214
12.75	43.0	7.9984
12.75	43.25	7.9655
12.75	43.5	7.9461
12.75	43.75	7.9246
12.75	44.0	7.8879
13.0	-44.0	8.1289
13.0	-43.75	8.1289
13.0	-43.5	8.1289
13.0	-43.25	8.1289
13.0	-43.0	8.1289
13.0	-42.75	8.1289
13.0	-42.5	8.1289
13.0	-42.25	8.1289
13.0	-42.0	8.1289
13.0	-41.75	8.1289
13.0	-41.5	8.1289
13.0	-41.25	8.1289
13.0	-41.0	8.1289
13.0	-40.75	8.129
13.0	-40.5	8.129
13.0	-40.25	8.1291
13.0	-40.0	8.1292
13.0	-39.75	8.1292
13.0	-39.5	8.1293
13.0	-39.25	8.1294
13.0	-39.0	8.1294
13.0	-38.75	8.1295
13.0	-38.5	8.1296
13.0	-38.25	8.1296
13.0	-38.0	8.1297
13.0	-37.75	8.1298
13.0	-37.5	8.1299
13.0	-37.25	8.13
13.0	-37.0	8.1301
13.0	-36.75	8.1302
13.0	-36.5	8.1303
13.0	-36.25	8.1304
13.0	-36.0	8.1305
13.0	-35.75	8.1306
13.0	-35.5	8.1307
13.0	-35.25	8.1308
13.0	-35.0	8.131
13.0	-34.75	8.1314
13.0	-34.5	8.1317
13.0	-34.25	8.132
13.0	-34.0	8.1324
13.0	-33.75	8.1327
13.0	-33.5	8.1331
13.0	-33.25	8.1334
13.0	-33.0	8.1337
13.0	-32.75	8.1338
13.0	-32.5	8.1339
13.0	-32.25	8.1339
13.0	-32.0	8.134
13.0	-31.75	8.1341
13.0	-31.5	8.1344
13.0	-31.25	8.1346
13.0	-31.0	8.1348
13.0	-30.75	8.1349
13.0	-30.5	8.1351
13.0	-30.25	8.1353
13.0	-30.0	8.1355
13.0	-29.75	8.1357
13.0	-29.5	8.1358
13.0	-29.25	8.136
13.0	-29.0	8.1363
13.0	-28.75	8.1365
13.0	-28.5	8.1367
13.0	-28.25	8.1369
13.0	-28.0	8.1372
13.0	-27.75	8.1374
13.0	-27.5	8.1376
13.0	-27.25	8.1379
13.0	-27.0	8.1381
13.0	-26.75	8.1384
13.0	-26.5	8.1384
13.0	-26.25	8.1383
13.0	-26.0	8.1383
13.0	-25.75	8.1382
13.0	-25.5	8.1382
13.0	-25.25	8.1381
13.0	-25.0	8.1381
13.0	-24.75	8.138
13.0	-24.5	8.1376
13.0	-24.25	8.1371
13.0	-24.0	8.1369
13.0	-23.75	8.1367
13.0	-23.5	8.1365
13.0	-23.25	8.1363
13.0	-23.0	8.136
13.0	-22.75	8.1358
13.0	-22.5	8.1356
13.0	-22.25	8.1357
13.0	-22.0	8.1358
13.0	-21.75	8.1358
13.0	-21.5	8.136
13.0	-21.25	8.1362
13.0	-21.0	8.1364
13.0	-20.75	8.1361
13.0	-20.5	8.1358
13.0	-20.25	8.1369
13.0	-20.0	8.1363
13.0	-19.75	8.1357
13.0	-19.5	8.1356
13.0	-19.25	8.1356
13.0	-19.0	8.1356
13.0	-18.75	8.1351
13.0	-18.5	8.1343
13.0	-18.25	8.1336
13.0	-18.0	8.1329
13.0	-17.75	8.1321
13.0	-17.5	8.1324
13.0	-17.25	8.1374
13.0	-17.0	8.1426
13.0	-16.75	8.1479
13.0	-16.5	8.1532
13.0	-16.25	8.1585
13.0	-16.0	8.1638
13.0	-15.75	8.1691
13.0	-15.5	8.1744
13.0	-15.25	8.1756
13.0	-15.0	8.1752
13.0	-14.75	8.1747
13.0	-14.5	8.1743
13.0	-14.25	8.1736
13.0	-14.0	8.1723
13.0	-13.75	8.171
13.0	-13.5	8.1697
13.0	-13.25	8.1688
13.0	-13.0	8.1684
13.0	-12.75	8.1681
13.0	-12.5	8.1677
13.0	-12.25	8.1673
13.0	-12.0	8.1672
13.0	-11.75	8.167
13.0	-11.5	8.1669
13.0	-11.25	8.1667
13.0	-11.0	8.1665
13.0	-10.75	8.1663
13.0	-10.5	8.1662
13.0	-10.25	8.166
13.0	-10.0	8.1659
13.0	-9.75	8.1662
13.0	-9.5	8.1665
13.0	-9.25	8.1669
