lon	lat	dVp(%)
46.0	36.75	-0.0043
46.0	37.0	-0.0046
46.0	37.25	-0.0037
46.0	37.5	-0.0032
46.0	37.75	-0.0026
46.0	38.0	-0.0013
46.0	38.25	-0.0002
46.0	38.5	0.0004
46.0	38.75	0.0006
46.0	39.0	0.0006
46.0	39.25	0.0011
46.0	39.5	0.0018
46.0	39.75	0.0014
46.0	40.0	0.0008
46.0	40.25	0.0002
46.0	40.5	0.0
46.0	40.75	0.0008
46.0	41.0	0.0016
46.0	41.25	0.0018
46.0	41.5	0.0016
46.0	41.75	0.0015
46.0	42.0	0.0007
46.0	42.25	-0.0011
46.0	42.5	-0.0029
46.0	42.75	-0.0022
46.0	43.0	-0.0001
46.0	43.25	0.0023
46.0	43.5	0.0039
46.0	43.75	0.0051
46.0	44.0	0.0064
46.25	-44.0	-0.0028
46.25	-43.75	-0.0027
46.25	-43.5	-0.0027
46.25	-43.25	-0.0026
46.25	-43.0	-0.0025
46.25	-42.75	-0.0025
46.25	-42.5	-0.0024
46.25	-42.25	-0.0023
46.25	-42.0	-0.0022
46.25	-41.75	-0.0021
46.25	-41.5	-0.0021
46.25	-41.25	-0.002
46.25	-41.0	-0.0019
46.25	-40.75	-0.0019
46.25	-40.5	-0.0018
46.25	-40.25	-0.0017
46.25	-40.0	-0.0017
46.25	-39.75	-0.0018
46.25	-39.5	-0.002
46.25	-39.25	-0.0021
46.25	-39.0	-0.0021
46.25	-38.75	-0.0021
46.25	-38.5	-0.002
46.25	-38.25	-0.0019
46.25	-38.0	-0.0018
46.25	-37.75	-0.0018
46.25	-37.5	-0.0018
46.25	-37.25	-0.0018
46.25	-37.0	-0.0019
46.25	-36.75	-0.002
46.25	-36.5	-0.002
46.25	-36.25	-0.002
46.25	-36.0	-0.002
46.25	-35.75	-0.002
46.25	-35.5	-0.002
46.25	-35.25	-0.002
46.25	-35.0	-0.002
46.25	-34.75	-0.002
46.25	-34.5	-0.002
46.25	-34.25	-0.002
46.25	-34.0	-0.0021
46.25	-33.75	-0.0021
46.25	-33.5	-0.0021
46.25	-33.25	-0.0021
46.25	-33.0	-0.0021
46.25	-32.75	-0.0021
46.25	-32.5	-0.0021
46.25	-32.25	-0.0021
46.25	-32.0	-0.0021
46.25	-31.75	-0.0022
46.25	-31.5	-0.0022
46.25	-31.25	-0.0022
46.25	-31.0	-0.0023
46.25	-30.75	-0.0023
46.25	-30.5	-0.0023
46.25	-30.25	-0.0024
46.25	-30.0	-0.0024
46.25	-29.75	-0.0024
46.25	-29.5	-0.0025
46.25	-29.25	-0.0025
46.25	-29.0	-0.0026
46.25	-28.75	-0.0026
46.25	-28.5	-0.0027
46.25	-28.25	-0.0027
46.25	-28.0	-0.0028
46.25	-27.75	-0.0028
46.25	-27.5	-0.0029
46.25	-27.25	-0.0029
46.25	-27.0	-0.0029
46.25	-26.75	-0.0029
46.25	-26.5	-0.0029
46.25	-26.25	-0.0029
46.25	-26.0	-0.0029
46.25	-25.75	-0.0029
46.25	-25.5	-0.0028
46.25	-25.25	-0.0027
46.25	-25.0	-0.0025
46.25	-24.75	-0.0024
46.25	-24.5	-0.0023
46.25	-24.25	-0.0022
46.25	-24.0	-0.0023
46.25	-23.75	-0.0025
46.25	-23.5	-0.0028
46.25	-23.25	-0.003
46.25	-23.0	-0.0026
46.25	-22.75	-0.0019
46.25	-22.5	-0.0013
46.25	-22.25	-0.0008
46.25	-22.0	-0.0004
46.25	-21.75	-0.0005
46.25	-21.5	-0.0009
46.25	-21.25	-0.0014
46.25	-21.0	-0.002
46.25	-20.75	-0.0025
46.25	-20.5	-0.0035
46.25	-20.25	-0.0044
46.25	-20.0	-0.0042
46.25	-19.75	-0.004
46.25	-19.5	-0.0038
46.25	-19.25	-0.0036
46.25	-19.0	-0.0027
46.25	-18.75	-0.0022
46.25	-18.5	-0.0022
46.25	-18.25	-0.002
46.25	-18.0	-0.0018
46.25	-17.75	-0.0016
46.25	-17.5	-0.0014
46.25	-17.25	-0.0013
46.25	-17.0	-0.0013
46.25	-16.75	-0.0013
46.25	-16.5	-0.0013
46.25	-16.25	-0.0015
46.25	-16.0	-0.0016
46.25	-15.75	-0.0018
46.25	-15.5	-0.002
46.25	-15.25	-0.0021
46.25	-15.0	-0.0024
46.25	-14.75	-0.0027
46.25	-14.5	-0.0029
46.25	-14.25	-0.0031
46.25	-14.0	-0.0033
46.25	-13.75	-0.0035
46.25	-13.5	-0.0037
46.25	-13.25	-0.0039
46.25	-13.0	-0.0041
46.25	-12.75	-0.0043
46.25	-12.5	-0.0044
46.25	-12.25	-0.0044
46.25	-12.0	-0.0045
46.25	-11.75	-0.0045
46.25	-11.5	-0.0046
46.25	-11.25	-0.0047
46.25	-11.0	-0.0047
46.25	-10.75	-0.0048
46.25	-10.5	-0.0048
46.25	-10.25	-0.0049
46.25	-10.0	-0.0049
46.25	-9.75	-0.0051
46.25	-9.5	-0.0052
46.25	-9.25	-0.0053
46.25	-9.0	-0.0054
46.25	-8.75	-0.0055
46.25	-8.5	-0.0056
46.25	-8.25	-0.0057
46.25	-8.0	-0.0058
46.25	-7.75	-0.0059
46.25	-7.5	-0.006
46.25	-7.25	-0.0061
46.25	-7.0	-0.0063
46.25	-6.75	-0.0064
46.25	-6.5	-0.0065
46.25	-6.25	-0.0066
46.25	-6.0	-0.0067
46.25	-5.75	-0.0068
46.25	-5.5	-0.0069
46.25	-5.25	-0.007
46.25	-5.0	-0.0071
46.25	-4.75	-0.0072
46.25	-4.5	-0.0073
46.25	-4.25	-0.0074
46.25	-4.0	-0.0075
46.25	-3.75	-0.0076
46.25	-3.5	-0.0076
46.25	-3.25	-0.0077
46.25	-3.0	-0.0078
46.25	-2.75	-0.0078
46.25	-2.5	-0.0079
46.25	-2.25	-0.008
46.25	-2.0	-0.008
46.25	-1.75	-0.0081
46.25	-1.5	-0.0082
46.25	-1.25	-0.0082
46.25	-1.0	-0.0083
46.25	-0.75	-0.0084
46.25	-0.5	-0.0085
46.25	-0.25	-0.0086
46.25	0.0	-0.0087
46.25	0.25	-0.0088
46.25	0.5	-0.0088
46.25	0.75	-0.0089
46.25	1.0	-0.009
46.25	1.25	-0.0091
46.25	1.5	-0.0092
46.25	1.75	-0.0093
46.25	2.0	-0.0094
46.25	2.25	-0.0095
46.25	2.5	-0.0095
46.25	2.75	-0.0096
46.25	3.0	-0.0097
46.25	3.25	-0.0098
46.25	3.5	-0.0098
46.25	3.75	-0.0099
46.25	4.0	-0.01
46.25	4.25	-0.0101
46.25	4.5	-0.0102
46.25	4.75	-0.0102
46.25	5.0	-0.0103
46.25	5.25	-0.0103
46.25	5.5	-0.0104
46.25	5.75	-0.0105
46.25	6.0	-0.0105
46.25	6.25	-0.0106
46.25	6.5	-0.0106
46.25	6.75	-0.0107
46.25	7.0	-0.0107
46.25	7.25	-0.0108
46.25	7.5	-0.0109
46.25	7.75	-0.0109
46.25	8.0	-0.011
46.25	8.25	-0.011
46.25	8.5	-0.0111
46.25	8.75	-0.0111
46.25	9.0	-0.0112
46.25	9.25	-0.0112
46.25	9.5	-0.0113
46.25	9.75	-0.0113
46.25	10.0	-0.0114
46.25	10.25	-0.0114
46.25	10.5	-0.0115
46.25	10.75	-0.0117
46.25	11.0	-0.0119
46.25	11.25	-0.0122
46.25	11.5	-0.0124
46.25	11.75	-0.0126
46.25	12.0	-0.0128
46.25	12.25	-0.013
46.25	12.5	-0.0133
46.25	12.75	-0.0135
46.25	13.0	-0.0138
46.25	13.25	-0.0139
46.25	13.5	-0.0138
46.25	13.75	-0.0137
46.25	14.0	-0.0137
46.25	14.25	-0.0137
46.25	14.5	-0.0136
46.25	14.75	-0.0136
46.25	15.0	-0.0129
46.25	15.25	-0.0121
46.25	15.5	-0.0114
46.25	15.75	-0.0108
46.25	16.0	-0.0102
46.25	16.25	-0.0094
46.25	16.5	-0.008
46.25	16.75	-0.0065
46.25	17.0	-0.0051
46.25	17.25	-0.0041
46.25	17.5	-0.0034
46.25	17.75	-0.0026
46.25	18.0	-0.0016
46.25	18.25	-0.0006
46.25	18.5	0.0005
46.25	18.75	0.0015
46.25	19.0	0.0024
46.25	19.25	0.0032
46.25	19.5	0.0041
46.25	19.75	0.0053
46.25	20.0	0.0065
46.25	20.25	0.0077
46.25	20.5	0.0078
46.25	20.75	0.008
46.25	21.0	0.0085
46.25	21.25	0.0089
46.25	21.5	0.0087
46.25	21.75	0.0086
46.25	22.0	0.0087
46.25	22.25	0.0088
46.25	22.5	0.0089
46.25	22.75	0.0089
46.25	23.0	0.0089
46.25	23.25	0.0089
46.25	23.5	0.0086
46.25	23.75	0.0082
46.25	24.0	0.0078
46.25	24.25	0.0077
46.25	24.5	0.008
46.25	24.75	0.0085
46.25	25.0	0.0089
46.25	25.25	0.0092
46.25	25.5	0.0097
46.25	25.75	0.0102
46.25	26.0	0.0106
46.25	26.25	0.011
46.25	26.5	0.0114
46.25	26.75	0.0118
46.25	27.0	0.0121
46.25	27.25	0.0125
46.25	27.5	0.013
46.25	27.75	0.0133
46.25	28.0	0.0135
46.25	28.25	0.0137
46.25	28.5	0.014
46.25	28.75	0.0143
46.25	29.0	0.0143
46.25	29.25	0.0143
46.25	29.5	0.014
46.25	29.75	0.014
46.25	30.0	0.0137
46.25	30.25	0.0126
46.25	30.5	0.0115
46.25	30.75	0.0105
46.25	31.0	0.0097
46.25	31.25	0.0088
46.25	31.5	0.0082
46.25	31.75	0.0076
46.25	32.0	0.0069
46.25	32.25	0.0064
46.25	32.5	0.0059
46.25	32.75	0.0055
46.25	33.0	0.0052
46.25	33.25	0.0046
46.25	33.5	0.0044
46.25	33.75	0.0051
46.25	34.0	0.0048
46.25	34.25	0.0051
46.25	34.5	0.0042
46.25	34.75	0.0024
46.25	35.0	0.0007
46.25	35.25	0.0009
46.25	35.5	-0.0003
46.25	35.75	-0.0019
46.25	36.0	-0.0032
46.25	36.25	-0.0041
46.25	36.5	-0.0046
46.25	36.75	-0.0051
46.25	37.0	-0.0054
46.25	37.25	-0.0045
46.25	37.5	-0.0036
46.25	37.75	-0.0027
46.25	38.0	-0.0017
46.25	38.25	-0.0007
46.25	38.5	0.0013
46.25	38.75	0.0015
46.25	39.0	0.0019
46.25	39.25	0.0028
46.25	39.5	0.0041
46.25	39.75	0.004
46.25	40.0	0.0039
46.25	40.25	0.0041
46.25	40.5	0.0038
46.25	40.75	0.0046
46.25	41.0	0.0053
46.25	41.25	0.0039
46.25	41.5	0.0033
46.25	41.75	0.003
46.25	42.0	0.0019
46.25	42.25	0.0
46.25	42.5	-0.0017
46.25	42.75	-0.0021
46.25	43.0	-0.0001
46.25	43.25	0.002
46.25	43.5	0.0037
46.25	43.75	0.0049
46.25	44.0	0.0062
46.5	-44.0	-0.0029
46.5	-43.75	-0.0028
46.5	-43.5	-0.0028
46.5	-43.25	-0.0027
46.5	-43.0	-0.0026
46.5	-42.75	-0.0026
46.5	-42.5	-0.0025
46.5	-42.25	-0.0024
46.5	-42.0	-0.0023
46.5	-41.75	-0.0022
46.5	-41.5	-0.0021
46.5	-41.25	-0.0021
46.5	-41.0	-0.002
46.5	-40.75	-0.002
46.5	-40.5	-0.0019
46.5	-40.25	-0.0018
46.5	-40.0	-0.0018
46.5	-39.75	-0.002
46.5	-39.5	-0.0021
46.5	-39.25	-0.0021
46.5	-39.0	-0.0021
46.5	-38.75	-0.0021
46.5	-38.5	-0.002
46.5	-38.25	-0.0019
46.5	-38.0	-0.0019
46.5	-37.75	-0.0018
46.5	-37.5	-0.0018
46.5	-37.25	-0.0018
46.5	-37.0	-0.0019
46.5	-36.75	-0.0019
46.5	-36.5	-0.002
46.5	-36.25	-0.002
46.5	-36.0	-0.0021
46.5	-35.75	-0.0021
46.5	-35.5	-0.0021
46.5	-35.25	-0.0021
46.5	-35.0	-0.0021
46.5	-34.75	-0.0021
46.5	-34.5	-0.0021
46.5	-34.25	-0.0021
46.5	-34.0	-0.0021
46.5	-33.75	-0.0021
46.5	-33.5	-0.0021
46.5	-33.25	-0.0021
46.5	-33.0	-0.0021
46.5	-32.75	-0.0022
46.5	-32.5	-0.0022
46.5	-32.25	-0.0022
46.5	-32.0	-0.0022
46.5	-31.75	-0.0022
46.5	-31.5	-0.0023
46.5	-31.25	-0.0023
46.5	-31.0	-0.0023
46.5	-30.75	-0.0024
46.5	-30.5	-0.0024
46.5	-30.25	-0.0024
46.5	-30.0	-0.0025
46.5	-29.75	-0.0025
46.5	-29.5	-0.0025
46.5	-29.25	-0.0026
46.5	-29.0	-0.0026
46.5	-28.75	-0.0027
46.5	-28.5	-0.0027
46.5	-28.25	-0.0028
46.5	-28.0	-0.0028
46.5	-27.75	-0.0029
46.5	-27.5	-0.0029
46.5	-27.25	-0.0029
46.5	-27.0	-0.0029
46.5	-26.75	-0.0029
46.5	-26.5	-0.0029
46.5	-26.25	-0.0029
46.5	-26.0	-0.0029
46.5	-25.75	-0.0027
46.5	-25.5	-0.0026
46.5	-25.25	-0.0024
46.5	-25.0	-0.0023
46.5	-24.75	-0.0022
46.5	-24.5	-0.0021
46.5	-24.25	-0.002
46.5	-24.0	-0.002
46.5	-23.75	-0.002
46.5	-23.5	-0.0022
46.5	-23.25	-0.0025
46.5	-23.0	-0.0021
46.5	-22.75	-0.0013
46.5	-22.5	-0.0006
46.5	-22.25	-0.0
46.5	-22.0	0.0004
46.5	-21.75	0.0001
46.5	-21.5	-0.0002
46.5	-21.25	-0.0008
46.5	-21.0	-0.0014
46.5	-20.75	-0.0028
46.5	-20.5	-0.0042
46.5	-20.25	-0.0048
46.5	-20.0	-0.005
46.5	-19.75	-0.0048
46.5	-19.5	-0.0043
46.5	-19.25	-0.0033
46.5	-19.0	-0.0024
46.5	-18.75	-0.0014
46.5	-18.5	-0.0014
46.5	-18.25	-0.0014
46.5	-18.0	-0.0014
46.5	-17.75	-0.0012
46.5	-17.5	-0.0012
46.5	-17.25	-0.0011
46.5	-17.0	-0.001
46.5	-16.75	-0.0011
46.5	-16.5	-0.0013
46.5	-16.25	-0.0014
46.5	-16.0	-0.0016
46.5	-15.75	-0.0017
46.5	-15.5	-0.0019
46.5	-15.25	-0.0022
46.5	-15.0	-0.0025
46.5	-14.75	-0.0028
46.5	-14.5	-0.003
46.5	-14.25	-0.0032
46.5	-14.0	-0.0034
46.5	-13.75	-0.0036
46.5	-13.5	-0.0038
46.5	-13.25	-0.004
46.5	-13.0	-0.0042
46.5	-12.75	-0.0044
46.5	-12.5	-0.0046
46.5	-12.25	-0.0046
46.5	-12.0	-0.0047
46.5	-11.75	-0.0047
46.5	-11.5	-0.0048
46.5	-11.25	-0.0048
46.5	-11.0	-0.0049
46.5	-10.75	-0.0049
46.5	-10.5	-0.005
46.5	-10.25	-0.0051
46.5	-10.0	-0.0051
46.5	-9.75	-0.0052
46.5	-9.5	-0.0053
46.5	-9.25	-0.0054
46.5	-9.0	-0.0055
46.5	-8.75	-0.0056
46.5	-8.5	-0.0057
46.5	-8.25	-0.0058
46.5	-8.0	-0.0059
46.5	-7.75	-0.006
46.5	-7.5	-0.0061
46.5	-7.25	-0.0062
46.5	-7.0	-0.0063
46.5	-6.75	-0.0064
46.5	-6.5	-0.0065
46.5	-6.25	-0.0066
46.5	-6.0	-0.0067
46.5	-5.75	-0.0068
46.5	-5.5	-0.0069
46.5	-5.25	-0.007
46.5	-5.0	-0.0071
46.5	-4.75	-0.0072
46.5	-4.5	-0.0073
46.5	-4.25	-0.0074
46.5	-4.0	-0.0075
46.5	-3.75	-0.0076
46.5	-3.5	-0.0076
46.5	-3.25	-0.0077
46.5	-3.0	-0.0078
46.5	-2.75	-0.0078
46.5	-2.5	-0.0079
46.5	-2.25	-0.008
46.5	-2.0	-0.008
46.5	-1.75	-0.0081
46.5	-1.5	-0.0082
46.5	-1.25	-0.0082
46.5	-1.0	-0.0083
46.5	-0.75	-0.0084
46.5	-0.5	-0.0085
46.5	-0.25	-0.0086
46.5	0.0	-0.0087
46.5	0.25	-0.0088
46.5	0.5	-0.0088
46.5	0.75	-0.0089
46.5	1.0	-0.009
46.5	1.25	-0.0091
46.5	1.5	-0.0092
46.5	1.75	-0.0093
46.5	2.0	-0.0093
46.5	2.25	-0.0094
46.5	2.5	-0.0095
46.5	2.75	-0.0096
46.5	3.0	-0.0096
46.5	3.25	-0.0097
46.5	3.5	-0.0098
46.5	3.75	-0.0099
46.5	4.0	-0.0099
46.5	4.25	-0.01
46.5	4.5	-0.0101
46.5	4.75	-0.0101
46.5	5.0	-0.0102
46.5	5.25	-0.0103
46.5	5.5	-0.0103
46.5	5.75	-0.0104
46.5	6.0	-0.0104
46.5	6.25	-0.0105
46.5	6.5	-0.0106
46.5	6.75	-0.0106
46.5	7.0	-0.0107
46.5	7.25	-0.0107
46.5	7.5	-0.0108
46.5	7.75	-0.0108
46.5	8.0	-0.0109
46.5	8.25	-0.011
46.5	8.5	-0.011
46.5	8.75	-0.0111
46.5	9.0	-0.0111
46.5	9.25	-0.0112
46.5	9.5	-0.0112
46.5	9.75	-0.0112
46.5	10.0	-0.0113
46.5	10.25	-0.0113
46.5	10.5	-0.0114
46.5	10.75	-0.0116
46.5	11.0	-0.0118
46.5	11.25	-0.012
46.5	11.5	-0.0122
46.5	11.75	-0.0124
46.5	12.0	-0.0126
46.5	12.25	-0.0129
46.5	12.5	-0.0131
46.5	12.75	-0.0134
46.5	13.0	-0.0135
46.5	13.25	-0.0135
46.5	13.5	-0.0134
46.5	13.75	-0.0132
46.5	14.0	-0.013
46.5	14.25	-0.013
46.5	14.5	-0.013
46.5	14.75	-0.0129
46.5	15.0	-0.0122
46.5	15.25	-0.0114
46.5	15.5	-0.0105
46.5	15.75	-0.0099
46.5	16.0	-0.0093
46.5	16.25	-0.0085
46.5	16.5	-0.007
46.5	16.75	-0.0056
46.5	17.0	-0.0047
46.5	17.25	-0.0039
46.5	17.5	-0.0031
46.5	17.75	-0.0023
46.5	18.0	-0.0014
46.5	18.25	-0.0004
46.5	18.5	0.0007
46.5	18.75	0.0016
46.5	19.0	0.0025
46.5	19.25	0.0033
46.5	19.5	0.0041
46.5	19.75	0.0049
46.5	20.0	0.0061
46.5	20.25	0.0074
46.5	20.5	0.0077
46.5	20.75	0.008
46.5	21.0	0.0085
46.5	21.25	0.009
46.5	21.5	0.0092
46.5	21.75	0.0091
46.5	22.0	0.0091
46.5	22.25	0.0093
46.5	22.5	0.0094
46.5	22.75	0.0095
46.5	23.0	0.0095
46.5	23.25	0.0095
46.5	23.5	0.0091
46.5	23.75	0.0088
46.5	24.0	0.0086
46.5	24.25	0.0088
46.5	24.5	0.009
46.5	24.75	0.0095
46.5	25.0	0.0097
46.5	25.25	0.0099
46.5	25.5	0.0102
46.5	25.75	0.0107
46.5	26.0	0.0111
46.5	26.25	0.0114
46.5	26.5	0.0118
46.5	26.75	0.0121
46.5	27.0	0.0124
46.5	27.25	0.0129
46.5	27.5	0.0134
46.5	27.75	0.0139
46.5	28.0	0.014
46.5	28.25	0.0144
46.5	28.5	0.0149
46.5	28.75	0.0152
46.5	29.0	0.0155
46.5	29.25	0.0154
46.5	29.5	0.0148
46.5	29.75	0.0146
46.5	30.0	0.0142
46.5	30.25	0.013
46.5	30.5	0.0118
46.5	30.75	0.0108
46.5	31.0	0.0099
46.5	31.25	0.0091
46.5	31.5	0.0085
46.5	31.75	0.0078
46.5	32.0	0.0071
46.5	32.25	0.0066
46.5	32.5	0.0061
46.5	32.75	0.0057
46.5	33.0	0.0061
46.5	33.25	0.0055
46.5	33.5	0.0057
46.5	33.75	0.0059
46.5	34.0	0.005
46.5	34.25	0.0048
46.5	34.5	0.0038
46.5	34.75	0.0018
46.5	35.0	-0.0
46.5	35.25	-0.0004
46.5	35.5	-0.002
46.5	35.75	-0.0035
46.5	36.0	-0.0044
46.5	36.25	-0.0051
46.5	36.5	-0.0054
46.5	36.75	-0.0059
46.5	37.0	-0.0062
46.5	37.25	-0.0053
46.5	37.5	-0.0046
46.5	37.75	-0.0038
46.5	38.0	-0.0027
46.5	38.25	-0.0017
46.5	38.5	0.0026
46.5	38.75	0.0029
46.5	39.0	0.0032
46.5	39.25	0.0052
46.5	39.5	0.0069
46.5	39.75	0.0069
46.5	40.0	0.0069
46.5	40.25	0.0087
46.5	40.5	0.0085
46.5	40.75	0.009
46.5	41.0	0.0079
46.5	41.25	0.0065
46.5	41.5	0.0048
46.5	41.75	0.004
46.5	42.0	0.0029
46.5	42.25	0.0012
46.5	42.5	-0.0002
46.5	42.75	-0.0009
46.5	43.0	-0.0008
46.5	43.25	0.0012
46.5	43.5	0.0031
46.5	43.75	0.0048
46.5	44.0	0.006
46.75	-44.0	-0.003
46.75	-43.75	-0.0029
46.75	-43.5	-0.0029
46.75	-43.25	-0.0028
46.75	-43.0	-0.0028
46.75	-42.75	-0.0027
46.75	-42.5	-0.0026
46.75	-42.25	-0.0025
46.75	-42.0	-0.0024
46.75	-41.75	-0.0023
46.75	-41.5	-0.0022
46.75	-41.25	-0.0022
46.75	-41.0	-0.0021
46.75	-40.75	-0.0021
46.75	-40.5	-0.002
46.75	-40.25	-0.0019
46.75	-40.0	-0.0019
46.75	-39.75	-0.0021
46.75	-39.5	-0.0021
46.75	-39.25	-0.0021
46.75	-39.0	-0.0021
46.75	-38.75	-0.0021
46.75	-38.5	-0.002
46.75	-38.25	-0.0019
46.75	-38.0	-0.0019
46.75	-37.75	-0.0018
46.75	-37.5	-0.0018
46.75	-37.25	-0.0018
46.75	-37.0	-0.0019
46.75	-36.75	-0.0019
46.75	-36.5	-0.002
46.75	-36.25	-0.0021
46.75	-36.0	-0.0021
46.75	-35.75	-0.0021
46.75	-35.5	-0.0021
46.75	-35.25	-0.0021
46.75	-35.0	-0.0022
46.75	-34.75	-0.0022
46.75	-34.5	-0.0022
46.75	-34.25	-0.0022
46.75	-34.0	-0.0022
46.75	-33.75	-0.0022
46.75	-33.5	-0.0022
46.75	-33.25	-0.0022
46.75	-33.0	-0.0022
46.75	-32.75	-0.0022
46.75	-32.5	-0.0022
46.75	-32.25	-0.0022
46.75	-32.0	-0.0023
46.75	-31.75	-0.0023
46.75	-31.5	-0.0023
46.75	-31.25	-0.0024
46.75	-31.0	-0.0024
46.75	-30.75	-0.0024
46.75	-30.5	-0.0025
46.75	-30.25	-0.0025
46.75	-30.0	-0.0025
46.75	-29.75	-0.0026
46.75	-29.5	-0.0026
46.75	-29.25	-0.0027
46.75	-29.0	-0.0027
46.75	-28.75	-0.0027
46.75	-28.5	-0.0028
46.75	-28.25	-0.0028
46.75	-28.0	-0.0029
46.75	-27.75	-0.0029
46.75	-27.5	-0.003
46.75	-27.25	-0.003
46.75	-27.0	-0.003
46.75	-26.75	-0.003
46.75	-26.5	-0.003
46.75	-26.25	-0.003
46.75	-26.0	-0.0029
46.75	-25.75	-0.0027
46.75	-25.5	-0.0024
46.75	-25.25	-0.0022
46.75	-25.0	-0.0021
46.75	-24.75	-0.0019
46.75	-24.5	-0.0018
46.75	-24.25	-0.0018
46.75	-24.0	-0.0017
46.75	-23.75	-0.0017
46.75	-23.5	-0.0017
46.75	-23.25	-0.002
46.75	-23.0	-0.0016
46.75	-22.75	-0.0008
46.75	-22.5	-0.0001
46.75	-22.25	0.0007
46.75	-22.0	0.001
46.75	-21.75	0.0007
46.75	-21.5	0.0004
46.75	-21.25	-0.0007
46.75	-21.0	-0.0021
46.75	-20.75	-0.0036
46.75	-20.5	-0.0047
46.75	-20.25	-0.0052
46.75	-20.0	-0.0057
46.75	-19.75	-0.0049
46.75	-19.5	-0.004
46.75	-19.25	-0.003
46.75	-19.0	-0.002
46.75	-18.75	-0.001
46.75	-18.5	-0.0005
46.75	-18.25	-0.0004
46.75	-18.0	-0.0004
46.75	-17.75	-0.0004
46.75	-17.5	-0.0006
46.75	-17.25	-0.0008
46.75	-17.0	-0.0009
46.75	-16.75	-0.0011
46.75	-16.5	-0.0012
46.75	-16.25	-0.0013
46.75	-16.0	-0.0015
46.75	-15.75	-0.0016
46.75	-15.5	-0.002
46.75	-15.25	-0.0023
46.75	-15.0	-0.0026
46.75	-14.75	-0.0029
46.75	-14.5	-0.0031
46.75	-14.25	-0.0033
46.75	-14.0	-0.0035
46.75	-13.75	-0.0037
46.75	-13.5	-0.0039
46.75	-13.25	-0.0042
46.75	-13.0	-0.0045
46.75	-12.75	-0.0047
46.75	-12.5	-0.0047
46.75	-12.25	-0.0048
46.75	-12.0	-0.0049
46.75	-11.75	-0.0049
46.75	-11.5	-0.005
46.75	-11.25	-0.005
46.75	-11.0	-0.0051
46.75	-10.75	-0.0051
46.75	-10.5	-0.0052
46.75	-10.25	-0.0052
46.75	-10.0	-0.0053
46.75	-9.75	-0.0053
46.75	-9.5	-0.0054
46.75	-9.25	-0.0055
46.75	-9.0	-0.0056
46.75	-8.75	-0.0057
46.75	-8.5	-0.0058
46.75	-8.25	-0.0059
46.75	-8.0	-0.006
46.75	-7.75	-0.0061
46.75	-7.5	-0.0062
46.75	-7.25	-0.0063
46.75	-7.0	-0.0064
46.75	-6.75	-0.0065
46.75	-6.5	-0.0066
46.75	-6.25	-0.0067
46.75	-6.0	-0.0068
46.75	-5.75	-0.0069
46.75	-5.5	-0.007
46.75	-5.25	-0.0071
46.75	-5.0	-0.0072
46.75	-4.75	-0.0073
46.75	-4.5	-0.0074
46.75	-4.25	-0.0074
46.75	-4.0	-0.0075
46.75	-3.75	-0.0076
46.75	-3.5	-0.0076
46.75	-3.25	-0.0077
46.75	-3.0	-0.0078
46.75	-2.75	-0.0079
46.75	-2.5	-0.0079
46.75	-2.25	-0.008
46.75	-2.0	-0.0081
46.75	-1.75	-0.0081
46.75	-1.5	-0.0082
46.75	-1.25	-0.0082
46.75	-1.0	-0.0083
46.75	-0.75	-0.0084
46.75	-0.5	-0.0085
46.75	-0.25	-0.0086
46.75	0.0	-0.0086
46.75	0.25	-0.0087
46.75	0.5	-0.0088
46.75	0.75	-0.0089
46.75	1.0	-0.009
46.75	1.25	-0.0091
46.75	1.5	-0.0091
46.75	1.75	-0.0092
46.75	2.0	-0.0093
46.75	2.25	-0.0094
46.75	2.5	-0.0095
46.75	2.75	-0.0095
46.75	3.0	-0.0096
46.75	3.25	-0.0097
46.75	3.5	-0.0098
46.75	3.75	-0.0098
46.75	4.0	-0.0099
46.75	4.25	-0.01
46.75	4.5	-0.0101
46.75	4.75	-0.0101
46.75	5.0	-0.0102
46.75	5.25	-0.0102
46.75	5.5	-0.0103
46.75	5.75	-0.0104
46.75	6.0	-0.0104
46.75	6.25	-0.0105
46.75	6.5	-0.0105
46.75	6.75	-0.0106
46.75	7.0	-0.0106
46.75	7.25	-0.0107
46.75	7.5	-0.0108
46.75	7.75	-0.0108
46.75	8.0	-0.0108
46.75	8.25	-0.0109
46.75	8.5	-0.0109
46.75	8.75	-0.011
46.75	9.0	-0.0111
46.75	9.25	-0.0111
46.75	9.5	-0.0111
46.75	9.75	-0.0112
46.75	10.0	-0.0112
46.75	10.25	-0.0112
46.75	10.5	-0.0113
46.75	10.75	-0.0115
46.75	11.0	-0.0117
46.75	11.25	-0.0119
46.75	11.5	-0.0121
46.75	11.75	-0.0123
46.75	12.0	-0.0124
46.75	12.25	-0.0127
46.75	12.5	-0.013
46.75	12.75	-0.013
46.75	13.0	-0.013
46.75	13.25	-0.013
46.75	13.5	-0.0129
46.75	13.75	-0.0127
46.75	14.0	-0.0125
46.75	14.25	-0.0124
46.75	14.5	-0.0123
46.75	14.75	-0.0123
46.75	15.0	-0.0115
46.75	15.25	-0.0107
46.75	15.5	-0.0099
46.75	15.75	-0.009
46.75	16.0	-0.0083
46.75	16.25	-0.0075
46.75	16.5	-0.0061
46.75	16.75	-0.0052
46.75	17.0	-0.0044
46.75	17.25	-0.0036
46.75	17.5	-0.0028
46.75	17.75	-0.002
46.75	18.0	-0.0012
46.75	18.25	-0.0002
46.75	18.5	0.0008
46.75	18.75	0.0017
46.75	19.0	0.0025
46.75	19.25	0.0033
46.75	19.5	0.0042
46.75	19.75	0.005
46.75	20.0	0.0058
46.75	20.25	0.007
46.75	20.5	0.0076
46.75	20.75	0.008
46.75	21.0	0.0085
46.75	21.25	0.009
46.75	21.5	0.0095
46.75	21.75	0.0095
46.75	22.0	0.0096
46.75	22.25	0.0097
46.75	22.5	0.0099
46.75	22.75	0.01
46.75	23.0	0.0101
46.75	23.25	0.0101
46.75	23.5	0.0097
46.75	23.75	0.0096
46.75	24.0	0.0098
46.75	24.25	0.0099
46.75	24.5	0.0101
46.75	24.75	0.0103
46.75	25.0	0.0106
46.75	25.25	0.0108
46.75	25.5	0.011
46.75	25.75	0.0113
46.75	26.0	0.0116
46.75	26.25	0.0119
46.75	26.5	0.0122
46.75	26.75	0.0124
46.75	27.0	0.0127
46.75	27.25	0.0132
46.75	27.5	0.0138
46.75	27.75	0.0143
46.75	28.0	0.0148
46.75	28.25	0.0153
46.75	28.5	0.0158
46.75	28.75	0.0161
46.75	29.0	0.0164
46.75	29.25	0.0165
46.75	29.5	0.016
46.75	29.75	0.0154
46.75	30.0	0.0146
46.75	30.25	0.0133
46.75	30.5	0.0121
46.75	30.75	0.0111
46.75	31.0	0.0102
46.75	31.25	0.0094
46.75	31.5	0.0087
46.75	31.75	0.008
46.75	32.0	0.0073
46.75	32.25	0.0068
46.75	32.5	0.0063
46.75	32.75	0.006
46.75	33.0	0.0064
46.75	33.25	0.0065
46.75	33.5	0.0066
46.75	33.75	0.006
46.75	34.0	0.0051
46.75	34.25	0.0046
46.75	34.5	0.0032
46.75	34.75	0.0012
46.75	35.0	-0.0008
46.75	35.25	-0.0022
46.75	35.5	-0.0037
46.75	35.75	-0.0047
46.75	36.0	-0.0054
46.75	36.25	-0.0061
46.75	36.5	-0.0064
46.75	36.75	-0.0068
46.75	37.0	-0.007
46.75	37.25	-0.0063
46.75	37.5	-0.0057
46.75	37.75	-0.0048
46.75	38.0	-0.0038
46.75	38.25	-0.002
46.75	38.5	0.0017
46.75	38.75	0.0037
46.75	39.0	0.0055
46.75	39.25	0.0075
46.75	39.5	0.0094
46.75	39.75	0.0098
46.75	40.0	0.0099
46.75	40.25	0.0116
46.75	40.5	0.0128
46.75	40.75	0.0116
46.75	41.0	0.0105
46.75	41.25	0.0091
46.75	41.5	0.0074
46.75	41.75	0.0056
46.75	42.0	0.0041
46.75	42.25	0.0026
46.75	42.5	0.0012
46.75	42.75	0.0006
46.75	43.0	0.0004
46.75	43.25	0.0005
46.75	43.5	0.0023
46.75	43.75	0.0041
46.75	44.0	0.0058
47.0	-44.0	-0.0031
47.0	-43.75	-0.003
47.0	-43.5	-0.003
47.0	-43.25	-0.0029
47.0	-43.0	-0.0028
47.0	-42.75	-0.0027
47.0	-42.5	-0.0027
47.0	-42.25	-0.0026
47.0	-42.0	-0.0025
47.0	-41.75	-0.0024
47.0	-41.5	-0.0023
47.0	-41.25	-0.0022
47.0	-41.0	-0.0022
47.0	-40.75	-0.0021
47.0	-40.5	-0.0021
47.0	-40.25	-0.002
47.0	-40.0	-0.002
47.0	-39.75	-0.002
47.0	-39.5	-0.0021
47.0	-39.25	-0.0021
47.0	-39.0	-0.0021
47.0	-38.75	-0.0021
47.0	-38.5	-0.002
47.0	-38.25	-0.002
47.0	-38.0	-0.0019
47.0	-37.75	-0.0019
47.0	-37.5	-0.0018
47.0	-37.25	-0.0018
47.0	-37.0	-0.0018
47.0	-36.75	-0.0019
47.0	-36.5	-0.002
47.0	-36.25	-0.0021
47.0	-36.0	-0.0022
47.0	-35.75	-0.0022
47.0	-35.5	-0.0022
47.0	-35.25	-0.0022
47.0	-35.0	-0.0022
47.0	-34.75	-0.0022
47.0	-34.5	-0.0022
47.0	-34.25	-0.0022
47.0	-34.0	-0.0022
47.0	-33.75	-0.0023
47.0	-33.5	-0.0023
47.0	-33.25	-0.0023
47.0	-33.0	-0.0023
47.0	-32.75	-0.0023
47.0	-32.5	-0.0023
47.0	-32.25	-0.0023
47.0	-32.0	-0.0023
47.0	-31.75	-0.0024
47.0	-31.5	-0.0024
47.0	-31.25	-0.0024
47.0	-31.0	-0.0025
47.0	-30.75	-0.0025
47.0	-30.5	-0.0025
47.0	-30.25	-0.0026
47.0	-30.0	-0.0026
47.0	-29.75	-0.0026
47.0	-29.5	-0.0027
47.0	-29.25	-0.0027
47.0	-29.0	-0.0028
47.0	-28.75	-0.0028
47.0	-28.5	-0.0029
47.0	-28.25	-0.0029
47.0	-28.0	-0.003
47.0	-27.75	-0.003
47.0	-27.5	-0.003
47.0	-27.25	-0.003
47.0	-27.0	-0.003
47.0	-26.75	-0.003
47.0	-26.5	-0.003
47.0	-26.25	-0.003
47.0	-26.0	-0.003
47.0	-25.75	-0.0027
47.0	-25.5	-0.0025
47.0	-25.25	-0.0022
47.0	-25.0	-0.0019
47.0	-24.75	-0.0017
47.0	-24.5	-0.0016
47.0	-24.25	-0.0016
47.0	-24.0	-0.0015
47.0	-23.75	-0.0015
47.0	-23.5	-0.0014
47.0	-23.25	-0.0014
47.0	-23.0	-0.0011
47.0	-22.75	-0.0003
47.0	-22.5	0.0
47.0	-22.25	0.0002
47.0	-22.0	0.0004
47.0	-21.75	0.0
47.0	-21.5	-0.0005
47.0	-21.25	-0.0017
47.0	-21.0	-0.0029
47.0	-20.75	-0.0043
47.0	-20.5	-0.0052
47.0	-20.25	-0.0055
47.0	-20.0	-0.0057
47.0	-19.75	-0.0047
47.0	-19.5	-0.0037
47.0	-19.25	-0.0019
47.0	-19.0	-0.0004
47.0	-18.75	0.0007
47.0	-18.5	0.0022
47.0	-18.25	0.0018
47.0	-18.0	0.0015
47.0	-17.75	0.0006
47.0	-17.5	0.0001
47.0	-17.25	-0.0003
47.0	-17.0	-0.0006
47.0	-16.75	-0.0009
47.0	-16.5	-0.0011
47.0	-16.25	-0.0013
47.0	-16.0	-0.0014
47.0	-15.75	-0.0017
47.0	-15.5	-0.002
47.0	-15.25	-0.0023
47.0	-15.0	-0.0026
47.0	-14.75	-0.0029
47.0	-14.5	-0.0031
47.0	-14.25	-0.0034
47.0	-14.0	-0.0037
47.0	-13.75	-0.0039
47.0	-13.5	-0.0042
47.0	-13.25	-0.0045
47.0	-13.0	-0.0047
47.0	-12.75	-0.0048
47.0	-12.5	-0.0049
47.0	-12.25	-0.005
47.0	-12.0	-0.005
47.0	-11.75	-0.0051
47.0	-11.5	-0.0051
47.0	-11.25	-0.0052
47.0	-11.0	-0.0052
47.0	-10.75	-0.0053
47.0	-10.5	-0.0054
47.0	-10.25	-0.0054
47.0	-10.0	-0.0054
47.0	-9.75	-0.0054
47.0	-9.5	-0.0055
47.0	-9.25	-0.0056
47.0	-9.0	-0.0057
47.0	-8.75	-0.0058
47.0	-8.5	-0.0059
47.0	-8.25	-0.006
47.0	-8.0	-0.0061
47.0	-7.75	-0.0062
47.0	-7.5	-0.0063
47.0	-7.25	-0.0064
47.0	-7.0	-0.0064
47.0	-6.75	-0.0065
47.0	-6.5	-0.0066
47.0	-6.25	-0.0067
47.0	-6.0	-0.0068
47.0	-5.75	-0.0069
47.0	-5.5	-0.007
47.0	-5.25	-0.0071
47.0	-5.0	-0.0072
47.0	-4.75	-0.0073
47.0	-4.5	-0.0074
47.0	-4.25	-0.0075
47.0	-4.0	-0.0075
47.0	-3.75	-0.0076
47.0	-3.5	-0.0077
47.0	-3.25	-0.0077
47.0	-3.0	-0.0078
47.0	-2.75	-0.0079
47.0	-2.5	-0.0079
47.0	-2.25	-0.008
47.0	-2.0	-0.0081
47.0	-1.75	-0.0081
47.0	-1.5	-0.0082
47.0	-1.25	-0.0082
47.0	-1.0	-0.0083
47.0	-0.75	-0.0084
47.0	-0.5	-0.0084
47.0	-0.25	-0.0085
47.0	0.0	-0.0086
47.0	0.25	-0.0087
47.0	0.5	-0.0088
47.0	0.75	-0.0089
47.0	1.0	-0.009
47.0	1.25	-0.009
47.0	1.5	-0.0091
47.0	1.75	-0.0092
47.0	2.0	-0.0093
47.0	2.25	-0.0093
47.0	2.5	-0.0094
47.0	2.75	-0.0095
47.0	3.0	-0.0096
47.0	3.25	-0.0097
47.0	3.5	-0.0097
47.0	3.75	-0.0098
47.0	4.0	-0.0099
47.0	4.25	-0.01
47.0	4.5	-0.01
47.0	4.75	-0.0101
47.0	5.0	-0.0101
47.0	5.25	-0.0102
47.0	5.5	-0.0103
47.0	5.75	-0.0103
47.0	6.0	-0.0104
47.0	6.25	-0.0104
47.0	6.5	-0.0105
47.0	6.75	-0.0105
47.0	7.0	-0.0106
47.0	7.25	-0.0107
47.0	7.5	-0.0107
47.0	7.75	-0.0108
47.0	8.0	-0.0108
47.0	8.25	-0.0109
47.0	8.5	-0.0109
47.0	8.75	-0.0109
47.0	9.0	-0.011
47.0	9.25	-0.011
47.0	9.5	-0.0111
47.0	9.75	-0.0111
47.0	10.0	-0.0111
47.0	10.25	-0.0112
47.0	10.5	-0.0112
47.0	10.75	-0.0114
47.0	11.0	-0.0116
47.0	11.25	-0.0117
47.0	11.5	-0.0119
47.0	11.75	-0.0121
47.0	12.0	-0.0123
47.0	12.25	-0.0125
47.0	12.5	-0.0125
47.0	12.75	-0.0125
47.0	13.0	-0.0126
47.0	13.25	-0.0126
47.0	13.5	-0.0125
47.0	13.75	-0.0123
47.0	14.0	-0.0121
47.0	14.25	-0.0119
47.0	14.5	-0.0117
47.0	14.75	-0.0116
47.0	15.0	-0.0108
47.0	15.25	-0.01
47.0	15.5	-0.0092
47.0	15.75	-0.0083
47.0	16.0	-0.0075
47.0	16.25	-0.0066
47.0	16.5	-0.0057
47.0	16.75	-0.0049
47.0	17.0	-0.0041
47.0	17.25	-0.0033
47.0	17.5	-0.0025
47.0	17.75	-0.0017
47.0	18.0	-0.0009
47.0	18.25	-0.0
47.0	18.5	0.0009
47.0	18.75	0.0017
47.0	19.0	0.0026
47.0	19.25	0.0034
47.0	19.5	0.0042
47.0	19.75	0.0051
47.0	20.0	0.0059
47.0	20.25	0.0067
47.0	20.5	0.0075
47.0	20.75	0.008
47.0	21.0	0.0085
47.0	21.25	0.009
47.0	21.5	0.0095
47.0	21.75	0.01
47.0	22.0	0.01
47.0	22.25	0.0102
47.0	22.5	0.0103
47.0	22.75	0.0105
47.0	23.0	0.0106
47.0	23.25	0.0107
47.0	23.5	0.0106
47.0	23.75	0.0107
47.0	24.0	0.0107
47.0	24.25	0.0107
47.0	24.5	0.0106
47.0	24.75	0.0107
47.0	25.0	0.011
47.0	25.25	0.0112
47.0	25.5	0.0114
47.0	25.75	0.0116
47.0	26.0	0.0118
47.0	26.25	0.0121
47.0	26.5	0.0124
47.0	26.75	0.0128
47.0	27.0	0.0131
47.0	27.25	0.0135
47.0	27.5	0.0141
47.0	27.75	0.0147
47.0	28.0	0.0156
47.0	28.25	0.0165
47.0	28.5	0.0169
47.0	28.75	0.0173
47.0	29.0	0.0176
47.0	29.25	0.018
47.0	29.5	0.0172
47.0	29.75	0.0166
47.0	30.0	0.0158
47.0	30.25	0.0145
47.0	30.5	0.0129
47.0	30.75	0.0116
47.0	31.0	0.0107
47.0	31.25	0.0096
47.0	31.5	0.0085
47.0	31.75	0.0077
47.0	32.0	0.007
47.0	32.25	0.0065
47.0	32.5	0.0061
47.0	32.75	0.0058
47.0	33.0	0.0062
47.0	33.25	0.006
47.0	33.5	0.0065
47.0	33.75	0.0059
47.0	34.0	0.0051
47.0	34.25	0.0043
47.0	34.5	0.0027
47.0	34.75	-0.0
47.0	35.0	-0.0019
47.0	35.25	-0.0033
47.0	35.5	-0.0049
47.0	35.75	-0.0057
47.0	36.0	-0.0064
47.0	36.25	-0.0071
47.0	36.5	-0.0074
47.0	36.75	-0.0076
47.0	37.0	-0.0075
47.0	37.25	-0.0069
47.0	37.5	-0.0063
47.0	37.75	-0.0053
47.0	38.0	-0.0043
47.0	38.25	-0.0024
47.0	38.5	0.0
47.0	38.75	0.0034
47.0	39.0	0.0062
47.0	39.25	0.0088
47.0	39.5	0.0104
47.0	39.75	0.0108
47.0	40.0	0.0109
47.0	40.25	0.0126
47.0	40.5	0.0137
47.0	40.75	0.0127
47.0	41.0	0.0116
47.0	41.25	0.0094
47.0	41.5	0.0071
47.0	41.75	0.005
47.0	42.0	0.0034
47.0	42.25	0.0021
47.0	42.5	0.001
47.0	42.75	0.0012
47.0	43.0	0.0012
47.0	43.25	0.001
47.0	43.5	0.0023
47.0	43.75	0.0036
47.0	44.0	0.0051
47.25	-44.0	-0.0032
47.25	-43.75	-0.0032
47.25	-43.5	-0.0031
47.25	-43.25	-0.003
47.25	-43.0	-0.0029
47.25	-42.75	-0.0028
47.25	-42.5	-0.0027
47.25	-42.25	-0.0027
47.25	-42.0	-0.0026
47.25	-41.75	-0.0025
47.25	-41.5	-0.0024
47.25	-41.25	-0.0023
47.25	-41.0	-0.0023
47.25	-40.75	-0.0022
47.25	-40.5	-0.0022
47.25	-40.25	-0.0021
47.25	-40.0	-0.0021
47.25	-39.75	-0.0021
47.25	-39.5	-0.0021
47.25	-39.25	-0.0021
47.25	-39.0	-0.0021
47.25	-38.75	-0.0021
47.25	-38.5	-0.0021
47.25	-38.25	-0.002
47.25	-38.0	-0.002
47.25	-37.75	-0.0019
47.25	-37.5	-0.0019
47.25	-37.25	-0.0018
47.25	-37.0	-0.0019
47.25	-36.75	-0.0019
47.25	-36.5	-0.002
47.25	-36.25	-0.0021
47.25	-36.0	-0.0022
47.25	-35.75	-0.0023
47.25	-35.5	-0.0023
47.25	-35.25	-0.0023
47.25	-35.0	-0.0023
47.25	-34.75	-0.0023
47.25	-34.5	-0.0023
47.25	-34.25	-0.0023
47.25	-34.0	-0.0023
47.25	-33.75	-0.0023
47.25	-33.5	-0.0023
47.25	-33.25	-0.0023
47.25	-33.0	-0.0023
47.25	-32.75	-0.0023
47.25	-32.5	-0.0023
47.25	-32.25	-0.0024
47.25	-32.0	-0.0024
47.25	-31.75	-0.0024
47.25	-31.5	-0.0025
47.25	-31.25	-0.0025
47.25	-31.0	-0.0025
47.25	-30.75	-0.0026
47.25	-30.5	-0.0026
47.25	-30.25	-0.0026
47.25	-30.0	-0.0027
47.25	-29.75	-0.0027
47.25	-29.5	-0.0027
47.25	-29.25	-0.0028
47.25	-29.0	-0.0028
47.25	-28.75	-0.0029
47.25	-28.5	-0.0029
47.25	-28.25	-0.003
47.25	-28.0	-0.003
47.25	-27.75	-0.003
47.25	-27.5	-0.0031
47.25	-27.25	-0.0031
47.25	-27.0	-0.0031
47.25	-26.75	-0.0031
47.25	-26.5	-0.0031
47.25	-26.25	-0.0031
47.25	-26.0	-0.003
47.25	-25.75	-0.0028
47.25	-25.5	-0.0025
47.25	-25.25	-0.0022
47.25	-25.0	-0.002
47.25	-24.75	-0.0017
47.25	-24.5	-0.0016
47.25	-24.25	-0.0015
47.25	-24.0	-0.0015
47.25	-23.75	-0.0014
47.25	-23.5	-0.0013
47.25	-23.25	-0.0013
47.25	-23.0	-0.0013
47.25	-22.75	-0.0014
47.25	-22.5	-0.0012
47.25	-22.25	-0.001
47.25	-22.0	-0.0008
47.25	-21.75	-0.0009
47.25	-21.5	-0.0018
47.25	-21.25	-0.003
47.25	-21.0	-0.0041
47.25	-20.75	-0.0047
47.25	-20.5	-0.0052
47.25	-20.25	-0.0054
47.25	-20.0	-0.0055
47.25	-19.75	-0.0045
47.25	-19.5	-0.0029
47.25	-19.25	-0.0011
47.25	-19.0	0.0015
47.25	-18.75	0.0026
47.25	-18.5	0.005
47.25	-18.25	0.0047
47.25	-18.0	0.0044
47.25	-17.75	0.0028
47.25	-17.5	0.0005
47.25	-17.25	0.0
47.25	-17.0	-0.0003
47.25	-16.75	-0.0005
47.25	-16.5	-0.0008
47.25	-16.25	-0.0012
47.25	-16.0	-0.0015
47.25	-15.75	-0.0018
47.25	-15.5	-0.0021
47.25	-15.25	-0.0024
47.25	-15.0	-0.0027
47.25	-14.75	-0.0031
47.25	-14.5	-0.0034
47.25	-14.25	-0.0037
47.25	-14.0	-0.004
47.25	-13.75	-0.0043
47.25	-13.5	-0.0045
47.25	-13.25	-0.0047
47.25	-13.0	-0.0049
47.25	-12.75	-0.005
47.25	-12.5	-0.0051
47.25	-12.25	-0.0051
47.25	-12.0	-0.0052
47.25	-11.75	-0.0053
47.25	-11.5	-0.0053
47.25	-11.25	-0.0054
47.25	-11.0	-0.0054
47.25	-10.75	-0.0055
47.25	-10.5	-0.0055
47.25	-10.25	-0.0055
47.25	-10.0	-0.0055
47.25	-9.75	-0.0055
47.25	-9.5	-0.0056
47.25	-9.25	-0.0057
47.25	-9.0	-0.0058
47.25	-8.75	-0.0059
47.25	-8.5	-0.006
47.25	-8.25	-0.0061
47.25	-8.0	-0.0063
47.25	-7.75	-0.0063
47.25	-7.5	-0.0064
47.25	-7.25	-0.0064
47.25	-7.0	-0.0065
47.25	-6.75	-0.0066
47.25	-6.5	-0.0067
47.25	-6.25	-0.0068
47.25	-6.0	-0.0069
47.25	-5.75	-0.007
47.25	-5.5	-0.0071
47.25	-5.25	-0.0072
47.25	-5.0	-0.0073
47.25	-4.75	-0.0073
47.25	-4.5	-0.0074
47.25	-4.25	-0.0075
47.25	-4.0	-0.0075
47.25	-3.75	-0.0076
47.25	-3.5	-0.0077
47.25	-3.25	-0.0077
47.25	-3.0	-0.0078
47.25	-2.75	-0.0079
47.25	-2.5	-0.0079
47.25	-2.25	-0.008
47.25	-2.0	-0.0081
47.25	-1.75	-0.0081
47.25	-1.5	-0.0082
47.25	-1.25	-0.0083
47.25	-1.0	-0.0083
47.25	-0.75	-0.0084
47.25	-0.5	-0.0084
47.25	-0.25	-0.0085
47.25	0.0	-0.0086
47.25	0.25	-0.0087
47.25	0.5	-0.0088
47.25	0.75	-0.0088
47.25	1.0	-0.0089
47.25	1.25	-0.009
47.25	1.5	-0.0091
47.25	1.75	-0.0092
47.25	2.0	-0.0092
47.25	2.25	-0.0093
47.25	2.5	-0.0094
47.25	2.75	-0.0095
47.25	3.0	-0.0095
47.25	3.25	-0.0096
47.25	3.5	-0.0097
47.25	3.75	-0.0098
47.25	4.0	-0.0099
47.25	4.25	-0.0099
47.25	4.5	-0.01
47.25	4.75	-0.0101
47.25	5.0	-0.0101
47.25	5.25	-0.0102
47.25	5.5	-0.0102
47.25	5.75	-0.0103
47.25	6.0	-0.0103
47.25	6.25	-0.0104
47.25	6.5	-0.0105
47.25	6.75	-0.0105
47.25	7.0	-0.0106
47.25	7.25	-0.0106
47.25	7.5	-0.0107
47.25	7.75	-0.0107
47.25	8.0	-0.0108
47.25	8.25	-0.0108
47.25	8.5	-0.0109
47.25	8.75	-0.0109
47.25	9.0	-0.0109
47.25	9.25	-0.011
47.25	9.5	-0.011
47.25	9.75	-0.011
47.25	10.0	-0.0111
47.25	10.25	-0.0111
47.25	10.5	-0.0111
47.25	10.75	-0.0113
47.25	11.0	-0.0115
47.25	11.25	-0.0117
47.25	11.5	-0.0118
47.25	11.75	-0.012
47.25	12.0	-0.0122
47.25	12.25	-0.0122
47.25	12.5	-0.0122
47.25	12.75	-0.0122
47.25	13.0	-0.0123
47.25	13.25	-0.0123
47.25	13.5	-0.0122
47.25	13.75	-0.012
47.25	14.0	-0.0118
47.25	14.25	-0.0116
47.25	14.5	-0.0114
47.25	14.75	-0.0112
47.25	15.0	-0.0104
47.25	15.25	-0.0096
47.25	15.5	-0.0087
47.25	15.75	-0.0079
47.25	16.0	-0.0071
47.25	16.25	-0.0062
47.25	16.5	-0.0054
47.25	16.75	-0.0046
47.25	17.0	-0.0038
47.25	17.25	-0.003
47.25	17.5	-0.0022
47.25	17.75	-0.0014
47.25	18.0	-0.0006
47.25	18.25	0.0002
47.25	18.5	0.0009
47.25	18.75	0.0017
47.25	19.0	0.0026
47.25	19.25	0.0034
47.25	19.5	0.0042
47.25	19.75	0.005
47.25	20.0	0.0059
47.25	20.25	0.0067
47.25	20.5	0.0074
47.25	20.75	0.0079
47.25	21.0	0.0084
47.25	21.25	0.0089
47.25	21.5	0.0094
47.25	21.75	0.0099
47.25	22.0	0.0104
47.25	22.25	0.0105
47.25	22.5	0.0107
47.25	22.75	0.0108
47.25	23.0	0.011
47.25	23.25	0.0111
47.25	23.5	0.0111
47.25	23.75	0.0111
47.25	24.0	0.0111
47.25	24.25	0.011
47.25	24.5	0.011
47.25	24.75	0.0111
47.25	25.0	0.0113
47.25	25.25	0.0115
47.25	25.5	0.0116
47.25	25.75	0.0118
47.25	26.0	0.012
47.25	26.25	0.0123
47.25	26.5	0.0126
47.25	26.75	0.013
47.25	27.0	0.0133
47.25	27.25	0.0139
47.25	27.5	0.0145
47.25	27.75	0.015
47.25	28.0	0.016
47.25	28.25	0.0172
47.25	28.5	0.0182
47.25	28.75	0.0187
47.25	29.0	0.0192
47.25	29.25	0.0196
47.25	29.5	0.0187
47.25	29.75	0.0179
47.25	30.0	0.017
47.25	30.25	0.0154
47.25	30.5	0.0135
47.25	30.75	0.0121
47.25	31.0	0.011
47.25	31.25	0.0097
47.25	31.5	0.0086
47.25	31.75	0.0075
47.25	32.0	0.0066
47.25	32.25	0.0062
47.25	32.5	0.0058
47.25	32.75	0.0055
47.25	33.0	0.0052
47.25	33.25	0.0049
47.25	33.5	0.0059
47.25	33.75	0.006
47.25	34.0	0.0054
47.25	34.25	0.0039
47.25	34.5	0.002
47.25	34.75	-0.0013
47.25	35.0	-0.0031
47.25	35.25	-0.0044
47.25	35.5	-0.0059
47.25	35.75	-0.0067
47.25	36.0	-0.0074
47.25	36.25	-0.0078
47.25	36.5	-0.0079
47.25	36.75	-0.008
47.25	37.0	-0.0079
47.25	37.25	-0.0075
47.25	37.5	-0.0068
47.25	37.75	-0.0057
47.25	38.0	-0.0044
47.25	38.25	-0.0022
47.25	38.5	0.0006
47.25	38.75	0.0038
47.25	39.0	0.0067
47.25	39.25	0.0098
47.25	39.5	0.0112
47.25	39.75	0.0113
47.25	40.0	0.0113
47.25	40.25	0.0133
47.25	40.5	0.0146
47.25	40.75	0.0135
47.25	41.0	0.0116
47.25	41.25	0.0094
47.25	41.5	0.0066
47.25	41.75	0.0042
47.25	42.0	0.0026
47.25	42.25	0.0015
47.25	42.5	0.0005
47.25	42.75	0.0008
47.25	43.0	0.0017
47.25	43.25	0.0017
47.25	43.5	0.0029
47.25	43.75	0.0042
47.25	44.0	0.0056
47.5	-44.0	-0.0033
47.5	-43.75	-0.0033
47.5	-43.5	-0.0032
47.5	-43.25	-0.0031
47.5	-43.0	-0.003
47.5	-42.75	-0.0029
47.5	-42.5	-0.0028
47.5	-42.25	-0.0028
47.5	-42.0	-0.0027
47.5	-41.75	-0.0026
47.5	-41.5	-0.0025
47.5	-41.25	-0.0024
47.5	-41.0	-0.0024
47.5	-40.75	-0.0023
47.5	-40.5	-0.0023
47.5	-40.25	-0.0022
47.5	-40.0	-0.0022
47.5	-39.75	-0.0021
47.5	-39.5	-0.0021
47.5	-39.25	-0.0021
47.5	-39.0	-0.0021
47.5	-38.75	-0.0021
47.5	-38.5	-0.0021
47.5	-38.25	-0.0021
47.5	-38.0	-0.002
47.5	-37.75	-0.002
47.5	-37.5	-0.0019
47.5	-37.25	-0.0019
47.5	-37.0	-0.0019
47.5	-36.75	-0.002
47.5	-36.5	-0.0021
47.5	-36.25	-0.0022
47.5	-36.0	-0.0023
47.5	-35.75	-0.0024
47.5	-35.5	-0.0024
47.5	-35.25	-0.0024
47.5	-35.0	-0.0024
47.5	-34.75	-0.0024
47.5	-34.5	-0.0024
47.5	-34.25	-0.0024
47.5	-34.0	-0.0024
47.5	-33.75	-0.0024
47.5	-33.5	-0.0024
47.5	-33.25	-0.0024
47.5	-33.0	-0.0024
47.5	-32.75	-0.0024
47.5	-32.5	-0.0024
47.5	-32.25	-0.0024
47.5	-32.0	-0.0025
47.5	-31.75	-0.0025
47.5	-31.5	-0.0025
47.5	-31.25	-0.0026
47.5	-31.0	-0.0026
47.5	-30.75	-0.0026
47.5	-30.5	-0.0027
47.5	-30.25	-0.0027
47.5	-30.0	-0.0027
47.5	-29.75	-0.0028
47.5	-29.5	-0.0028
47.5	-29.25	-0.0029
47.5	-29.0	-0.0029
47.5	-28.75	-0.0029
47.5	-28.5	-0.003
47.5	-28.25	-0.003
47.5	-28.0	-0.0031
47.5	-27.75	-0.0031
47.5	-27.5	-0.0031
47.5	-27.25	-0.0031
47.5	-27.0	-0.0031
47.5	-26.75	-0.0031
47.5	-26.5	-0.0031
47.5	-26.25	-0.0031
47.5	-26.0	-0.0031
47.5	-25.75	-0.0028
47.5	-25.5	-0.0026
47.5	-25.25	-0.0023
47.5	-25.0	-0.002
47.5	-24.75	-0.0018
47.5	-24.5	-0.0017
47.5	-24.25	-0.0016
47.5	-24.0	-0.0016
47.5	-23.75	-0.0015
47.5	-23.5	-0.0015
47.5	-23.25	-0.0014
47.5	-23.0	-0.0015
47.5	-22.75	-0.0015
47.5	-22.5	-0.0016
47.5	-22.25	-0.0017
47.5	-22.0	-0.0018
47.5	-21.75	-0.0018
47.5	-21.5	-0.0024
47.5	-21.25	-0.003
47.5	-21.0	-0.0036
47.5	-20.75	-0.0042
47.5	-20.5	-0.0046
47.5	-20.25	-0.005
47.5	-20.0	-0.0052
47.5	-19.75	-0.0037
47.5	-19.5	-0.0021
47.5	-19.25	-0.0004
47.5	-19.0	0.0022
47.5	-18.75	0.0048
47.5	-18.5	0.0074
47.5	-18.25	0.0067
47.5	-18.0	0.0054
47.5	-17.75	0.0039
47.5	-17.5	0.0023
47.5	-17.25	0.0006
47.5	-17.0	-0.0001
47.5	-16.75	-0.0005
47.5	-16.5	-0.0009
47.5	-16.25	-0.0013
47.5	-16.0	-0.0017
47.5	-15.75	-0.002
47.5	-15.5	-0.0023
47.5	-15.25	-0.0026
47.5	-15.0	-0.003
47.5	-14.75	-0.0034
47.5	-14.5	-0.0037
47.5	-14.25	-0.004
47.5	-14.0	-0.0043
47.5	-13.75	-0.0046
47.5	-13.5	-0.0048
47.5	-13.25	-0.0049
47.5	-13.0	-0.005
47.5	-12.75	-0.0052
47.5	-12.5	-0.0053
47.5	-12.25	-0.0053
47.5	-12.0	-0.0054
47.5	-11.75	-0.0054
47.5	-11.5	-0.0055
47.5	-11.25	-0.0055
47.5	-11.0	-0.0056
47.5	-10.75	-0.0056
47.5	-10.5	-0.0056
47.5	-10.25	-0.0056
47.5	-10.0	-0.0056
47.5	-9.75	-0.0056
47.5	-9.5	-0.0057
47.5	-9.25	-0.0058
47.5	-9.0	-0.0059
47.5	-8.75	-0.006
47.5	-8.5	-0.0062
47.5	-8.25	-0.0063
47.5	-8.0	-0.0064
47.5	-7.75	-0.0064
47.5	-7.5	-0.0064
47.5	-7.25	-0.0065
47.5	-7.0	-0.0065
47.5	-6.75	-0.0066
47.5	-6.5	-0.0067
47.5	-6.25	-0.0068
47.5	-6.0	-0.0069
47.5	-5.75	-0.007
47.5	-5.5	-0.0071
47.5	-5.25	-0.0072
47.5	-5.0	-0.0073
47.5	-4.75	-0.0073
47.5	-4.5	-0.0074
47.5	-4.25	-0.0075
47.5	-4.0	-0.0075
47.5	-3.75	-0.0076
47.5	-3.5	-0.0077
47.5	-3.25	-0.0077
47.5	-3.0	-0.0078
47.5	-2.75	-0.0079
47.5	-2.5	-0.008
47.5	-2.25	-0.008
47.5	-2.0	-0.0081
47.5	-1.75	-0.0082
47.5	-1.5	-0.0082
47.5	-1.25	-0.0083
47.5	-1.0	-0.0083
47.5	-0.75	-0.0084
47.5	-0.5	-0.0084
47.5	-0.25	-0.0085
47.5	0.0	-0.0086
47.5	0.25	-0.0086
47.5	0.5	-0.0087
47.5	0.75	-0.0088
47.5	1.0	-0.0089
47.5	1.25	-0.009
47.5	1.5	-0.0091
47.5	1.75	-0.0091
47.5	2.0	-0.0092
47.5	2.25	-0.0093
47.5	2.5	-0.0094
47.5	2.75	-0.0094
47.5	3.0	-0.0095
47.5	3.25	-0.0096
47.5	3.5	-0.0097
47.5	3.75	-0.0097
47.5	4.0	-0.0098
47.5	4.25	-0.0099
47.5	4.5	-0.01
47.5	4.75	-0.01
47.5	5.0	-0.0101
47.5	5.25	-0.0101
47.5	5.5	-0.0102
47.5	5.75	-0.0103
47.5	6.0	-0.0103
47.5	6.25	-0.0104
47.5	6.5	-0.0104
47.5	6.75	-0.0105
47.5	7.0	-0.0105
47.5	7.25	-0.0106
47.5	7.5	-0.0106
47.5	7.75	-0.0107
47.5	8.0	-0.0107
47.5	8.25	-0.0108
47.5	8.5	-0.0108
47.5	8.75	-0.0109
47.5	9.0	-0.0109
47.5	9.25	-0.0109
47.5	9.5	-0.011
47.5	9.75	-0.011
47.5	10.0	-0.011
47.5	10.25	-0.0111
47.5	10.5	-0.0111
47.5	10.75	-0.0113
47.5	11.0	-0.0115
47.5	11.25	-0.0117
47.5	11.5	-0.0119
47.5	11.75	-0.012
47.5	12.0	-0.0122
47.5	12.25	-0.0125
47.5	12.5	-0.0125
47.5	12.75	-0.0123
47.5	13.0	-0.0122
47.5	13.25	-0.0121
47.5	13.5	-0.0119
47.5	13.75	-0.0118
47.5	14.0	-0.0117
47.5	14.25	-0.0116
47.5	14.5	-0.0115
47.5	14.75	-0.0111
47.5	15.0	-0.0103
47.5	15.25	-0.0095
47.5	15.5	-0.0086
47.5	15.75	-0.0078
47.5	16.0	-0.0069
47.5	16.25	-0.006
47.5	16.5	-0.0053
47.5	16.75	-0.0045
47.5	17.0	-0.0037
47.5	17.25	-0.0029
47.5	17.5	-0.0021
47.5	17.75	-0.0013
47.5	18.0	-0.0005
47.5	18.25	0.0002
47.5	18.5	0.0007
47.5	18.75	0.0016
47.5	19.0	0.0024
47.5	19.25	0.0032
47.5	19.5	0.004
47.5	19.75	0.0049
47.5	20.0	0.0057
47.5	20.25	0.0065
47.5	20.5	0.0072
47.5	20.75	0.0077
47.5	21.0	0.0082
47.5	21.25	0.0087
47.5	21.5	0.0092
47.5	21.75	0.0099
47.5	22.0	0.0104
47.5	22.25	0.0108
47.5	22.5	0.0109
47.5	22.75	0.011
47.5	23.0	0.0112
47.5	23.25	0.0113
47.5	23.5	0.0113
47.5	23.75	0.0113
47.5	24.0	0.0113
47.5	24.25	0.0113
47.5	24.5	0.0113
47.5	24.75	0.0114
47.5	25.0	0.0115
47.5	25.25	0.0117
47.5	25.5	0.0119
47.5	25.75	0.012
47.5	26.0	0.0122
47.5	26.25	0.0125
47.5	26.5	0.0128
47.5	26.75	0.0131
47.5	27.0	0.0133
47.5	27.25	0.014
47.5	27.5	0.0147
47.5	27.75	0.0153
47.5	28.0	0.0164
47.5	28.25	0.0177
47.5	28.5	0.019
47.5	28.75	0.0198
47.5	29.0	0.0206
47.5	29.25	0.0212
47.5	29.5	0.0203
47.5	29.75	0.0194
47.5	30.0	0.018
47.5	30.25	0.016
47.5	30.5	0.0141
47.5	30.75	0.0125
47.5	31.0	0.0111
47.5	31.25	0.0098
47.5	31.5	0.0085
47.5	31.75	0.0073
47.5	32.0	0.0061
47.5	32.25	0.0055
47.5	32.5	0.005
47.5	32.75	0.0047
47.5	33.0	0.005
47.5	33.25	0.0048
47.5	33.5	0.0056
47.5	33.75	0.0058
47.5	34.0	0.0057
47.5	34.25	0.0038
47.5	34.5	0.0009
47.5	34.75	-0.0024
47.5	35.0	-0.0044
47.5	35.25	-0.0056
47.5	35.5	-0.0069
47.5	35.75	-0.0074
47.5	36.0	-0.0077
47.5	36.25	-0.0081
47.5	36.5	-0.0082
47.5	36.75	-0.0083
47.5	37.0	-0.0083
47.5	37.25	-0.0078
47.5	37.5	-0.0073
47.5	37.75	-0.0062
47.5	38.0	-0.0042
47.5	38.25	-0.0019
47.5	38.5	0.0011
47.5	38.75	0.0043
47.5	39.0	0.0075
47.5	39.25	0.0107
47.5	39.5	0.0119
47.5	39.75	0.0118
47.5	40.0	0.0117
47.5	40.25	0.0137
47.5	40.5	0.0154
47.5	40.75	0.0135
47.5	41.0	0.0116
47.5	41.25	0.0094
47.5	41.5	0.0066
47.5	41.75	0.0038
47.5	42.0	0.002
47.5	42.25	0.001
47.5	42.5	0.0
47.5	42.75	0.0004
47.5	43.0	0.0013
47.5	43.25	0.0022
47.5	43.5	0.0034
47.5	43.75	0.0047
47.5	44.0	0.006
47.75	-44.0	-0.0034
47.75	-43.75	-0.0034
47.75	-43.5	-0.0033
47.75	-43.25	-0.0032
47.75	-43.0	-0.0031
47.75	-42.75	-0.003
47.75	-42.5	-0.003
47.75	-42.25	-0.0029
47.75	-42.0	-0.0028
47.75	-41.75	-0.0027
47.75	-41.5	-0.0026
47.75	-41.25	-0.0025
47.75	-41.0	-0.0025
47.75	-40.75	-0.0024
47.75	-40.5	-0.0024
47.75	-40.25	-0.0023
47.75	-40.0	-0.0023
47.75	-39.75	-0.0022
47.75	-39.5	-0.0022
47.75	-39.25	-0.0022
47.75	-39.0	-0.0022
47.75	-38.75	-0.0022
47.75	-38.5	-0.0022
47.75	-38.25	-0.0022
47.75	-38.0	-0.0021
47.75	-37.75	-0.0021
47.75	-37.5	-0.002
47.75	-37.25	-0.002
47.75	-37.0	-0.002
47.75	-36.75	-0.0021
47.75	-36.5	-0.0021
47.75	-36.25	-0.0022
47.75	-36.0	-0.0023
47.75	-35.75	-0.0024
47.75	-35.5	-0.0024
47.75	-35.25	-0.0024
47.75	-35.0	-0.0025
47.75	-34.75	-0.0024
47.75	-34.5	-0.0024
47.75	-34.25	-0.0024
47.75	-34.0	-0.0024
47.75	-33.75	-0.0025
47.75	-33.5	-0.0025
47.75	-33.25	-0.0025
47.75	-33.0	-0.0025
47.75	-32.75	-0.0025
47.75	-32.5	-0.0025
47.75	-32.25	-0.0025
47.75	-32.0	-0.0025
47.75	-31.75	-0.0026
47.75	-31.5	-0.0026
47.75	-31.25	-0.0026
47.75	-31.0	-0.0027
47.75	-30.75	-0.0027
47.75	-30.5	-0.0027
47.75	-30.25	-0.0028
47.75	-30.0	-0.0028
47.75	-29.75	-0.0028
47.75	-29.5	-0.0029
47.75	-29.25	-0.0029
47.75	-29.0	-0.003
47.75	-28.75	-0.003
47.75	-28.5	-0.0031
47.75	-28.25	-0.0031
47.75	-28.0	-0.0031
47.75	-27.75	-0.0032
47.75	-27.5	-0.0032
47.75	-27.25	-0.0032
47.75	-27.0	-0.0032
47.75	-26.75	-0.0032
47.75	-26.5	-0.0032
47.75	-26.25	-0.0031
47.75	-26.0	-0.0031
47.75	-25.75	-0.0029
47.75	-25.5	-0.0026
47.75	-25.25	-0.0023
47.75	-25.0	-0.0021
47.75	-24.75	-0.002
47.75	-24.5	-0.0019
47.75	-24.25	-0.0018
47.75	-24.0	-0.0017
47.75	-23.75	-0.0017
47.75	-23.5	-0.0016
47.75	-23.25	-0.0016
47.75	-23.0	-0.0016
47.75	-22.75	-0.0017
47.75	-22.5	-0.0017
47.75	-22.25	-0.0018
47.75	-22.0	-0.0019
47.75	-21.75	-0.002
47.75	-21.5	-0.0021
47.75	-21.25	-0.0024
47.75	-21.0	-0.003
47.75	-20.75	-0.0036
47.75	-20.5	-0.0041
47.75	-20.25	-0.0043
47.75	-20.0	-0.0033
47.75	-19.75	-0.0007
47.75	-19.5	0.0008
47.75	-19.25	0.002
47.75	-19.0	0.004
47.75	-18.75	0.0066
47.75	-18.5	0.0091
47.75	-18.25	0.0081
47.75	-18.0	0.0062
47.75	-17.75	0.0042
47.75	-17.5	0.0026
47.75	-17.25	0.0006
47.75	-17.0	-0.0002
47.75	-16.75	-0.0007
47.75	-16.5	-0.0011
47.75	-16.25	-0.0015
47.75	-16.0	-0.0019
47.75	-15.75	-0.0022
47.75	-15.5	-0.0025
47.75	-15.25	-0.0028
47.75	-15.0	-0.0033
47.75	-14.75	-0.0037
47.75	-14.5	-0.004
47.75	-14.25	-0.0043
47.75	-14.0	-0.0046
47.75	-13.75	-0.0048
47.75	-13.5	-0.0049
47.75	-13.25	-0.0051
47.75	-13.0	-0.0052
47.75	-12.75	-0.0054
47.75	-12.5	-0.0054
47.75	-12.25	-0.0055
47.75	-12.0	-0.0056
47.75	-11.75	-0.0056
47.75	-11.5	-0.0057
47.75	-11.25	-0.0057
47.75	-11.0	-0.0057
47.75	-10.75	-0.0057
47.75	-10.5	-0.0057
47.75	-10.25	-0.0057
47.75	-10.0	-0.0057
47.75	-9.75	-0.0057
47.75	-9.5	-0.0058
47.75	-9.25	-0.006
47.75	-9.0	-0.0061
47.75	-8.75	-0.0062
47.75	-8.5	-0.0063
47.75	-8.25	-0.0064
47.75	-8.0	-0.0064
47.75	-7.75	-0.0064
47.75	-7.5	-0.0065
47.75	-7.25	-0.0065
47.75	-7.0	-0.0066
47.75	-6.75	-0.0067
47.75	-6.5	-0.0068
47.75	-6.25	-0.0069
47.75	-6.0	-0.007
47.75	-5.75	-0.0071
47.75	-5.5	-0.0072
47.75	-5.25	-0.0072
47.75	-5.0	-0.0073
47.75	-4.75	-0.0074
47.75	-4.5	-0.0074
47.75	-4.25	-0.0075
47.75	-4.0	-0.0076
47.75	-3.75	-0.0076
47.75	-3.5	-0.0077
47.75	-3.25	-0.0078
47.75	-3.0	-0.0078
47.75	-2.75	-0.0079
47.75	-2.5	-0.008
47.75	-2.25	-0.008
47.75	-2.0	-0.0081
47.75	-1.75	-0.0082
47.75	-1.5	-0.0082
47.75	-1.25	-0.0083
47.75	-1.0	-0.0083
47.75	-0.75	-0.0084
47.75	-0.5	-0.0084
47.75	-0.25	-0.0085
47.75	0.0	-0.0085
47.75	0.25	-0.0086
47.75	0.5	-0.0087
47.75	0.75	-0.0088
47.75	1.0	-0.0089
47.75	1.25	-0.0089
47.75	1.5	-0.009
47.75	1.75	-0.0091
47.75	2.0	-0.0092
47.75	2.25	-0.0093
47.75	2.5	-0.0093
47.75	2.75	-0.0094
47.75	3.0	-0.0095
47.75	3.25	-0.0096
47.75	3.5	-0.0096
47.75	3.75	-0.0097
47.75	4.0	-0.0098
47.75	4.25	-0.0099
47.75	4.5	-0.0099
47.75	4.75	-0.01
47.75	5.0	-0.01
47.75	5.25	-0.0101
47.75	5.5	-0.0102
47.75	5.75	-0.0102
47.75	6.0	-0.0103
47.75	6.25	-0.0103
47.75	6.5	-0.0104
47.75	6.75	-0.0104
47.75	7.0	-0.0105
47.75	7.25	-0.0105
47.75	7.5	-0.0106
47.75	7.75	-0.0106
47.75	8.0	-0.0107
47.75	8.25	-0.0107
47.75	8.5	-0.0108
47.75	8.75	-0.0108
47.75	9.0	-0.0109
47.75	9.25	-0.0109
47.75	9.5	-0.0109
47.75	9.75	-0.011
47.75	10.0	-0.011
47.75	10.25	-0.0111
47.75	10.5	-0.0111
47.75	10.75	-0.0113
47.75	11.0	-0.0115
47.75	11.25	-0.0117
47.75	11.5	-0.0119
47.75	11.75	-0.0121
47.75	12.0	-0.0123
47.75	12.25	-0.0125
47.75	12.5	-0.0128
47.75	12.75	-0.0128
47.75	13.0	-0.0126
47.75	13.25	-0.0125
47.75	13.5	-0.012
47.75	13.75	-0.0119
47.75	14.0	-0.0117
47.75	14.25	-0.0116
47.75	14.5	-0.0113
47.75	14.75	-0.0109
47.75	15.0	-0.0102
47.75	15.25	-0.0093
47.75	15.5	-0.0085
47.75	15.75	-0.0076
47.75	16.0	-0.0067
47.75	16.25	-0.0058
47.75	16.5	-0.0051
47.75	16.75	-0.0043
47.75	17.0	-0.0035
47.75	17.25	-0.0027
47.75	17.5	-0.0019
47.75	17.75	-0.0011
47.75	18.0	-0.0003
47.75	18.25	0.0002
47.75	18.5	0.0007
47.75	18.75	0.0014
47.75	19.0	0.0022
47.75	19.25	0.0031
47.75	19.5	0.0039
47.75	19.75	0.0047
47.75	20.0	0.0055
47.75	20.25	0.0063
47.75	20.5	0.0069
47.75	20.75	0.0074
47.75	21.0	0.008
47.75	21.25	0.0085
47.75	21.5	0.0092
47.75	21.75	0.0098
47.75	22.0	0.0104
47.75	22.25	0.0108
47.75	22.5	0.0111
47.75	22.75	0.0113
47.75	23.0	0.0114
47.75	23.25	0.0115
47.75	23.5	0.0115
47.75	23.75	0.0115
47.75	24.0	0.0115
47.75	24.25	0.0115
47.75	24.5	0.0116
47.75	24.75	0.0117
47.75	25.0	0.0118
47.75	25.25	0.0119
47.75	25.5	0.012
47.75	25.75	0.0122
47.75	26.0	0.0124
47.75	26.25	0.0127
47.75	26.5	0.013
47.75	26.75	0.0131
47.75	27.0	0.0133
47.75	27.25	0.0139
47.75	27.5	0.0149
47.75	27.75	0.0155
47.75	28.0	0.0167
47.75	28.25	0.0181
47.75	28.5	0.0194
47.75	28.75	0.0211
47.75	29.0	0.0221
47.75	29.25	0.0229
47.75	29.5	0.0221
47.75	29.75	0.0212
47.75	30.0	0.0184
47.75	30.25	0.0165
47.75	30.5	0.0143
47.75	30.75	0.0124
47.75	31.0	0.0112
47.75	31.25	0.0098
47.75	31.5	0.0085
47.75	31.75	0.0071
47.75	32.0	0.0058
47.75	32.25	0.0048
47.75	32.5	0.0042
47.75	32.75	0.0037
47.75	33.0	0.0041
47.75	33.25	0.0046
47.75	33.5	0.0047
47.75	33.75	0.0049
47.75	34.0	0.0048
47.75	34.25	0.0025
47.75	34.5	-0.0004
47.75	34.75	-0.0035
47.75	35.0	-0.0055
47.75	35.25	-0.0067
47.75	35.5	-0.0077
47.75	35.75	-0.0078
47.75	36.0	-0.008
47.75	36.25	-0.0083
47.75	36.5	-0.0085
47.75	36.75	-0.0086
47.75	37.0	-0.0088
47.75	37.25	-0.0082
47.75	37.5	-0.0076
47.75	37.75	-0.0066
47.75	38.0	-0.0047
47.75	38.25	-0.002
47.75	38.5	0.0009
47.75	38.75	0.004
47.75	39.0	0.0066
47.75	39.25	0.0093
47.75	39.5	0.0108
47.75	39.75	0.0112
47.75	40.0	0.0113
47.75	40.25	0.0127
47.75	40.5	0.0141
47.75	40.75	0.0126
47.75	41.0	0.0107
47.75	41.25	0.0087
47.75	41.5	0.0065
47.75	41.75	0.0036
47.75	42.0	0.0019
47.75	42.25	0.0009
47.75	42.5	-0.0
47.75	42.75	0.0003
47.75	43.0	0.0012
47.75	43.25	0.0026
47.75	43.5	0.0038
47.75	43.75	0.0051
47.75	44.0	0.0064
48.0	-44.0	-0.0036
48.0	-43.75	-0.0035
48.0	-43.5	-0.0034
48.0	-43.25	-0.0033
48.0	-43.0	-0.0032
48.0	-42.75	-0.0032
48.0	-42.5	-0.0031
48.0	-42.25	-0.003
48.0	-42.0	-0.0029
48.0	-41.75	-0.0028
48.0	-41.5	-0.0027
48.0	-41.25	-0.0027
48.0	-41.0	-0.0026
48.0	-40.75	-0.0025
48.0	-40.5	-0.0025
48.0	-40.25	-0.0024
48.0	-40.0	-0.0024
48.0	-39.75	-0.0023
48.0	-39.5	-0.0023
48.0	-39.25	-0.0022
48.0	-39.0	-0.0022
48.0	-38.75	-0.0022
48.0	-38.5	-0.0022
48.0	-38.25	-0.0022
48.0	-38.0	-0.0022
48.0	-37.75	-0.0021
48.0	-37.5	-0.0021
48.0	-37.25	-0.002
48.0	-37.0	-0.002
48.0	-36.75	-0.0021
48.0	-36.5	-0.0022
