lon	lat	mgal
111.0	50.0	9.0705
111.0	51.0	-21.9749
111.0	52.0	-36.7972
111.0	53.0	-3.5798
111.0	54.0	53.0689
111.0	55.0	-33.0478
111.0	56.0	-104.3698
111.0	57.0	36.8266
111.0	58.0	-22.4987
111.0	59.0	-25.9658
111.0	60.0	-20.0815
111.0	61.0	-10.1681
111.0	62.0	-18.2241
111.0	63.0	-22.9153
111.0	64.0	-12.2187
111.0	65.0	12.8348
111.0	66.0	21.8104
111.0	67.0	-18.3089
111.0	68.0	13.1315
111.0	69.0	-11.4271
111.0	70.0	8.3735
111.0	71.0	29.9621
111.0	72.0	-5.0639
111.0	73.0	-20.205
111.0	74.0	-34.3615
111.0	75.0	7.4153
111.0	76.0	27.0066
111.0	77.0	15.873
111.0	78.0	1.4418
111.0	79.0	29.3244
111.0	80.0	3.4789
111.0	81.0	-25.8695
111.0	82.0	-3.7272
111.0	83.0	28.6361
111.0	84.0	-43.8826
111.0	85.0	22.2704
111.0	86.0	0.1665
111.0	87.0	-8.9061
111.0	88.0	-24.3452
111.0	89.0	16.1243
111.0	90.0	19.9524
112.0	-90.0	-12.6846
112.0	-89.0	-27.0372
112.0	-88.0	-34.0705
112.0	-87.0	-46.2113
112.0	-86.0	-36.5493
112.0	-85.0	-4.6
112.0	-84.0	9.8675
112.0	-83.0	-8.2597
112.0	-82.0	-8.3774
112.0	-81.0	-28.0737
112.0	-80.0	-27.4684
112.0	-79.0	12.6265
112.0	-78.0	33.6099
112.0	-77.0	41.923
112.0	-76.0	-4.6845
112.0	-75.0	-51.0529
112.0	-74.0	-65.5367
112.0	-73.0	-54.1736
112.0	-72.0	-31.7736
112.0	-71.0	-24.7339
112.0	-70.0	-10.0382
112.0	-69.0	7.5655
112.0	-68.0	2.4132
112.0	-67.0	3.3061
112.0	-66.0	11.5906
112.0	-65.0	-17.9934
112.0	-64.0	-7.1745
112.0	-63.0	-21.3357
112.0	-62.0	-11.1837
112.0	-61.0	-3.0858
112.0	-60.0	0.9788
112.0	-59.0	1.7833
112.0	-58.0	1.6515
112.0	-57.0	-8.1267
112.0	-56.0	-1.3735
112.0	-55.0	3.9767
112.0	-54.0	-1.3598
112.0	-53.0	1.7076
112.0	-52.0	2.8344
112.0	-51.0	-2.7103
112.0	-50.0	10.7651
112.0	-49.0	-10.9967
112.0	-48.0	-2.6136
112.0	-47.0	-2.4789
112.0	-46.0	-8.5993
112.0	-45.0	-6.6703
112.0	-44.0	-13.9453
112.0	-43.0	-14.4985
112.0	-42.0	-24.1508
112.0	-41.0	-21.4849
112.0	-40.0	-24.1338
112.0	-39.0	-18.1951
112.0	-38.0	-14.934
112.0	-37.0	-8.7541
112.0	-36.0	-40.1336
112.0	-35.0	9.7485
112.0	-34.0	-22.9021
112.0	-33.0	-32.0435
112.0	-32.0	-36.4708
112.0	-31.0	-33.364
112.0	-30.0	-30.7646
112.0	-29.0	-43.9242
112.0	-28.0	-31.321
112.0	-27.0	-7.8284
112.0	-26.0	27.5296
112.0	-25.0	11.951
112.0	-24.0	5.146
112.0	-23.0	-26.7889
112.0	-22.0	-40.7114
112.0	-21.0	9.9972
112.0	-20.0	-24.9154
112.0	-19.0	-38.503
112.0	-18.0	-13.225
112.0	-17.0	-16.8153
112.0	-16.0	-16.7995
112.0	-15.0	8.1669
112.0	-14.0	-21.0022
112.0	-13.0	34.5202
112.0	-12.0	46.665
112.0	-11.0	6.4633
112.0	-10.0	-65.7013
112.0	-9.0	14.0266
112.0	-8.0	60.0994
112.0	-7.0	54.5215
112.0	-6.0	37.6618
112.0	-5.0	11.012
112.0	-4.0	28.6668
112.0	-3.0	33.6349
112.0	-2.0	40.2891
112.0	-1.0	36.9433
112.0	0.0	24.5666
112.0	1.0	43.8341
112.0	2.0	32.9428
112.0	3.0	23.245
112.0	4.0	19.7599
112.0	5.0	20.2039
112.0	6.0	-0.1189
112.0	7.0	-2.4182
112.0	8.0	11.1844
112.0	9.0	17.5006
112.0	10.0	27.7072
112.0	11.0	-2.9536
112.0	12.0	7.0533
112.0	13.0	-8.062
112.0	14.0	17.5837
112.0	15.0	-5.4567
112.0	16.0	-7.6349
112.0	17.0	-1.427
112.0	18.0	-43.0619
112.0	19.0	4.2043
112.0	20.0	-8.8945
112.0	21.0	-8.5589
112.0	22.0	-11.794
112.0	23.0	-6.7029
112.0	24.0	-40.2614
112.0	25.0	24.7205
112.0	26.0	36.5333
112.0	27.0	-12.2718
112.0	28.0	-20.246
112.0	29.0	-27.1352
112.0	30.0	-36.8607
112.0	31.0	-34.5452
112.0	32.0	-42.3277
112.0	33.0	-17.9466
112.0	34.0	-37.9423
112.0	35.0	3.1982
112.0	36.0	32.1027
112.0	37.0	-15.8499
112.0	38.0	-2.6215
112.0	39.0	28.6064
112.0	40.0	53.044
112.0	41.0	21.4961
112.0	42.0	-5.0301
112.0	43.0	-8.0094
112.0	44.0	-9.3169
112.0	45.0	-13.7884
112.0	46.0	-16.9594
112.0	47.0	8.2101
112.0	48.0	-13.956
112.0	49.0	17.6298
112.0	50.0	-29.1675
112.0	51.0	-22.1422
112.0	52.0	-8.2843
112.0	53.0	-22.0356
112.0	54.0	-10.1346
112.0	55.0	15.4018
112.0	56.0	-27.227
112.0	57.0	-22.4055
112.0	58.0	-16.0075
112.0	59.0	-40.5953
112.0	60.0	-41.3737
112.0	61.0	-23.7725
112.0	62.0	6.5627
112.0	63.0	-29.5596
112.0	64.0	3.2793
112.0	65.0	-1.9149
112.0	66.0	16.2548
112.0	67.0	6.9409
112.0	68.0	-12.486
112.0	69.0	15.495
112.0	70.0	0.8069
112.0	71.0	-10.1889
112.0	72.0	1.266
112.0	73.0	-26.4052
112.0	74.0	-28.1756
112.0	75.0	1.0945
112.0	76.0	3.0537
112.0	77.0	16.3612
112.0	78.0	-4.1262
112.0	79.0	21.6502
112.0	80.0	-13.5224
112.0	81.0	-20.1289
112.0	82.0	-0.1797
112.0	83.0	31.4221
112.0	84.0	-41.0253
112.0	85.0	19.9172
112.0	86.0	0.7781
112.0	87.0	-7.7135
112.0	88.0	-25.2147
112.0	89.0	16.3989
112.0	90.0	19.9524
113.0	-90.0	-12.6846
113.0	-89.0	-27.1424
113.0	-88.0	-35.0961
113.0	-87.0	-46.614
113.0	-86.0	-36.8089
113.0	-85.0	-4.1467
113.0	-84.0	8.259
113.0	-83.0	-10.2154
113.0	-82.0	-8.27
113.0	-81.0	-26.7528
113.0	-80.0	-22.1652
113.0	-79.0	14.1102
113.0	-78.0	21.6796
113.0	-77.0	23.0289
113.0	-76.0	-24.3666
113.0	-75.0	-65.1264
113.0	-74.0	-69.5743
113.0	-73.0	-41.4356
113.0	-72.0	-6.2256
113.0	-71.0	5.5982
113.0	-70.0	-3.2569
113.0	-69.0	1.8365
113.0	-68.0	1.7873
113.0	-67.0	6.0772
113.0	-66.0	16.2008
113.0	-65.0	11.8936
113.0	-64.0	-43.0476
113.0	-63.0	-20.6193
113.0	-62.0	-17.9539
113.0	-61.0	-4.946
113.0	-60.0	-0.6976
113.0	-59.0	-1.2852
113.0	-58.0	-4.0653
113.0	-57.0	-18.0894
113.0	-56.0	0.1604
113.0	-55.0	-5.0657
113.0	-54.0	-0.3863
113.0	-53.0	0.0033
113.0	-52.0	-3.1047
113.0	-51.0	-9.5
113.0	-50.0	1.4709
113.0	-49.0	-0.1813
113.0	-48.0	-3.163
113.0	-47.0	-8.4781
113.0	-46.0	-7.6077
113.0	-45.0	-9.49
113.0	-44.0	-13.2567
113.0	-43.0	-14.2718
113.0	-42.0	-13.7509
113.0	-41.0	-20.2946
113.0	-40.0	-20.2018
113.0	-39.0	-23.1067
113.0	-38.0	-19.4649
113.0	-37.0	-42.6191
113.0	-36.0	-42.2138
113.0	-35.0	-69.3141
113.0	-34.0	-34.5845
113.0	-33.0	-51.5126
113.0	-32.0	-40.5605
113.0	-31.0	-37.7443
113.0	-30.0	-42.6468
113.0	-29.0	-45.7291
113.0	-28.0	-17.9474
113.0	-27.0	6.4478
113.0	-26.0	4.6958
113.0	-25.0	20.7975
113.0	-24.0	18.9886
113.0	-23.0	-31.434
113.0	-22.0	-17.4609
113.0	-21.0	-47.8768
113.0	-20.0	-13.1873
113.0	-19.0	-17.9061
113.0	-18.0	-12.6248
113.0	-17.0	26.1322
113.0	-16.0	-23.9913
113.0	-15.0	-4.4348
113.0	-14.0	-3.6376
113.0	-13.0	-36.0726
113.0	-12.0	9.893
113.0	-11.0	-45.5624
113.0	-10.0	9.665
113.0	-9.0	60.7932
113.0	-8.0	304.1647
113.0	-7.0	45.8067
113.0	-6.0	24.9971
113.0	-5.0	28.0312
113.0	-4.0	30.3209
113.0	-3.0	39.9214
113.0	-2.0	45.386
113.0	-1.0	29.5422
113.0	0.0	17.036
113.0	1.0	32.0329
113.0	2.0	21.4928
113.0	3.0	43.0275
113.0	4.0	17.1191
113.0	5.0	29.4296
113.0	6.0	-1.334
113.0	7.0	31.2195
113.0	8.0	16.6565
113.0	9.0	-13.9644
113.0	10.0	30.291
113.0	11.0	-2.2487
113.0	12.0	-25.5029
113.0	13.0	-1.3589
113.0	14.0	3.7925
113.0	15.0	-14.1775
113.0	16.0	9.3619
113.0	17.0	8.9726
113.0	18.0	-21.3304
113.0	19.0	4.9954
113.0	20.0	-4.6193
113.0	21.0	-13.8859
113.0	22.0	-16.6793
113.0	23.0	0.3859
113.0	24.0	-13.6595
113.0	25.0	49.3459
113.0	26.0	-31.7558
113.0	27.0	-21.3881
113.0	28.0	-17.2507
113.0	29.0	-20.038
113.0	30.0	-24.4062
113.0	31.0	-10.0447
113.0	32.0	-34.0823
113.0	33.0	-16.4706
113.0	34.0	-31.9165
113.0	35.0	-57.5468
113.0	36.0	9.0189
113.0	37.0	1.36
113.0	38.0	16.0214
113.0	39.0	7.7088
113.0	40.0	42.1357
113.0	41.0	21.3373
113.0	42.0	-4.5276
113.0	43.0	-14.5667
113.0	44.0	-20.9384
113.0	45.0	-9.9725
113.0	46.0	-3.0649
113.0	47.0	-12.9715
113.0	48.0	-27.9983
113.0	49.0	-18.3029
113.0	50.0	-17.0737
113.0	51.0	-11.0179
113.0	52.0	-15.815
113.0	53.0	-6.879
113.0	54.0	-9.521
113.0	55.0	-17.5841
113.0	56.0	23.1469
113.0	57.0	-61.5183
113.0	58.0	54.9633
113.0	59.0	-45.2123
113.0	60.0	-54.1257
113.0	61.0	-19.9637
113.0	62.0	-32.4905
113.0	63.0	-24.9129
113.0	64.0	-9.2662
113.0	65.0	28.8772
113.0	66.0	8.8096
113.0	67.0	6.9818
113.0	68.0	-16.1435
113.0	69.0	20.0408
113.0	70.0	0.4096
113.0	71.0	-12.7116
113.0	72.0	4.2866
113.0	73.0	-25.025
113.0	74.0	-18.3822
113.0	75.0	-3.4381
113.0	76.0	14.8336
113.0	77.0	17.857
113.0	78.0	-10.7289
113.0	79.0	-5.3595
113.0	80.0	-21.3729
113.0	81.0	-12.47
113.0	82.0	3.8948
113.0	83.0	22.2948
113.0	84.0	-31.2734
113.0	85.0	20.1848
113.0	86.0	0.3875
113.0	87.0	-6.219
113.0	88.0	-20.9985
113.0	89.0	16.5071
113.0	90.0	19.9524
114.0	-90.0	-12.6846
114.0	-89.0	-27.2759
114.0	-88.0	-36.2031
114.0	-87.0	-46.9692
114.0	-86.0	-36.6355
114.0	-85.0	-4.7702
114.0	-84.0	7.1816
114.0	-83.0	-13.2385
114.0	-82.0	-8.3439
114.0	-81.0	-22.6663
114.0	-80.0	-15.5988
114.0	-79.0	14.2318
114.0	-78.0	6.9244
114.0	-77.0	1.6511
114.0	-76.0	-40.4045
114.0	-75.0	-74.2942
114.0	-74.0	-69.1693
114.0	-73.0	-25.2915
114.0	-72.0	9.432
114.0	-71.0	22.0196
114.0	-70.0	-0.5179
114.0	-69.0	-0.9832
114.0	-68.0	4.8105
114.0	-67.0	2.6415
114.0	-66.0	2.9219
114.0	-65.0	14.1584
114.0	-64.0	-30.514
114.0	-63.0	-30.3704
114.0	-62.0	-26.4463
114.0	-61.0	0.6057
114.0	-60.0	-6.6821
114.0	-59.0	2.6663
114.0	-58.0	-0.5719
114.0	-57.0	-3.4127
114.0	-56.0	-2.1299
114.0	-55.0	-13.5484
114.0	-54.0	-5.7632
114.0	-53.0	-1.645
114.0	-52.0	0.0088
114.0	-51.0	9.121
114.0	-50.0	-20.2012
114.0	-49.0	-14.3219
114.0	-48.0	-1.7323
114.0	-47.0	-9.0627
114.0	-46.0	-8.6954
114.0	-45.0	-13.5375
114.0	-44.0	-13.1152
114.0	-43.0	-17.9802
114.0	-42.0	-17.553
114.0	-41.0	-16.6361
114.0	-40.0	-21.0983
114.0	-39.0	-21.2296
114.0	-38.0	-17.8696
114.0	-37.0	-49.0135
114.0	-36.0	-51.8854
114.0	-35.0	-56.4125
114.0	-34.0	-13.1967
114.0	-33.0	-38.0556
114.0	-32.0	-38.3475
114.0	-31.0	-40.107
114.0	-30.0	-52.8373
114.0	-29.0	2.1834
114.0	-28.0	10.1073
114.0	-27.0	5.8042
114.0	-26.0	-10.5004
114.0	-25.0	-17.0667
114.0	-24.0	-8.2111
114.0	-23.0	10.8991
114.0	-22.0	69.0031
114.0	-21.0	-41.691
114.0	-20.0	-34.2073
114.0	-19.0	-10.9049
114.0	-18.0	-13.1932
114.0	-17.0	-20.0496
114.0	-16.0	-89.4873
114.0	-15.0	2.7721
114.0	-14.0	2.1163
114.0	-13.0	8.1568
114.0	-12.0	40.8327
114.0	-11.0	-129.7124
114.0	-10.0	-97.2064
114.0	-9.0	9.8983
114.0	-8.0	155.4265
114.0	-7.0	30.9491
114.0	-6.0	36.2223
114.0	-5.0	25.9689
114.0	-4.0	39.8797
114.0	-3.0	36.5946
114.0	-2.0	32.4538
114.0	-1.0	44.7048
114.0	0.0	82.7271
114.0	1.0	85.8655
114.0	2.0	58.6147
114.0	3.0	27.42
114.0	4.0	33.6878
114.0	5.0	45.5885
114.0	6.0	-25.5541
114.0	7.0	9.043
114.0	8.0	38.2211
114.0	9.0	11.0517
114.0	10.0	41.3233
114.0	11.0	3.3516
114.0	12.0	7.7441
114.0	13.0	-6.6137
114.0	14.0	4.7346
114.0	15.0	-20.7933
114.0	16.0	35.4719
114.0	17.0	-5.1831
114.0	18.0	-27.0554
114.0	19.0	4.2974
114.0	20.0	-4.2576
114.0	21.0	-5.2429
114.0	22.0	4.4074
114.0	23.0	-11.0709
114.0	24.0	22.7873
114.0	25.0	-25.8689
114.0	26.0	30.473
114.0	27.0	-22.327
114.0	28.0	-8.5166
114.0	29.0	-22.8033
114.0	30.0	-24.7359
114.0	31.0	-15.7888
114.0	32.0	-25.3639
114.0	33.0	-20.8746
114.0	34.0	-27.0601
114.0	35.0	-46.1083
114.0	36.0	-11.8589
114.0	37.0	1.6147
114.0	38.0	-20.147
114.0	39.0	-14.9528
114.0	40.0	-51.3376
114.0	41.0	30.1263
114.0	42.0	7.3516
114.0	43.0	-12.2177
114.0	44.0	-7.2573
114.0	45.0	12.6278
114.0	46.0	-10.3581
114.0	47.0	-5.9416
114.0	48.0	-28.1998
114.0	49.0	4.4899
114.0	50.0	-17.0925
114.0	51.0	-4.4304
114.0	52.0	-34.42
114.0	53.0	-28.8516
114.0	54.0	-32.9849
114.0	55.0	-8.9824
114.0	56.0	-81.0627
114.0	57.0	-37.9815
114.0	58.0	20.7651
114.0	59.0	-9.6697
114.0	60.0	-85.6922
114.0	61.0	-35.6977
114.0	62.0	-26.4737
114.0	63.0	-24.9246
114.0	64.0	8.8072
114.0	65.0	9.5514
114.0	66.0	8.3837
114.0	67.0	4.8611
114.0	68.0	-17.8559
114.0	69.0	-13.7835
114.0	70.0	-8.3161
114.0	71.0	-7.8215
114.0	72.0	-1.8002
114.0	73.0	-37.2929
114.0	74.0	-9.2677
114.0	75.0	-6.9995
114.0	76.0	11.3787
114.0	77.0	4.4784
114.0	78.0	-12.2027
114.0	79.0	-14.9462
114.0	80.0	-12.2024
114.0	81.0	-9.2496
114.0	82.0	18.0407
114.0	83.0	18.1369
114.0	84.0	-16.0197
114.0	85.0	18.4258
114.0	86.0	-0.6727
114.0	87.0	-4.3543
114.0	88.0	-13.487
114.0	89.0	16.4506
114.0	90.0	19.9524
115.0	-90.0	-12.6846
115.0	-89.0	-27.4293
115.0	-88.0	-37.4004
115.0	-87.0	-47.6323
115.0	-86.0	-36.4428
115.0	-85.0	-5.1005
115.0	-84.0	5.1844
115.0	-83.0	-17.1229
115.0	-82.0	-9.1142
115.0	-81.0	-17.0377
115.0	-80.0	-9.7246
115.0	-79.0	13.0648
115.0	-78.0	-6.8893
115.0	-77.0	-17.1544
115.0	-76.0	-50.8203
115.0	-75.0	-77.1956
115.0	-74.0	-65.4343
115.0	-73.0	-8.5531
115.0	-72.0	13.0287
115.0	-71.0	21.5511
115.0	-70.0	-0.343
115.0	-69.0	-0.6804
115.0	-68.0	7.4366
115.0	-67.0	-11.2012
115.0	-66.0	-22.5346
115.0	-65.0	-2.8957
115.0	-64.0	-7.7403
115.0	-63.0	-13.0051
115.0	-62.0	-34.7684
115.0	-61.0	-5.3088
115.0	-60.0	-4.5226
115.0	-59.0	-5.5104
115.0	-58.0	-3.7684
115.0	-57.0	-3.6064
115.0	-56.0	-7.9841
115.0	-55.0	-7.2628
115.0	-54.0	-2.3607
115.0	-53.0	4.8399
115.0	-52.0	-5.7469
115.0	-51.0	-19.3195
115.0	-50.0	-24.0378
115.0	-49.0	-20.9406
115.0	-48.0	-3.2525
115.0	-47.0	-5.3141
115.0	-46.0	-16.6938
115.0	-45.0	-19.0469
115.0	-44.0	-13.4959
115.0	-43.0	-20.2305
115.0	-42.0	-17.369
115.0	-41.0	-24.6798
115.0	-40.0	-16.5366
115.0	-39.0	-15.5131
115.0	-38.0	-19.0298
115.0	-37.0	-48.2731
115.0	-36.0	-42.1904
115.0	-35.0	12.1943
115.0	-34.0	32.9828
115.0	-33.0	-19.3691
115.0	-32.0	-71.882
115.0	-31.0	31.1303
115.0	-30.0	8.0742
115.0	-29.0	1.8772
115.0	-28.0	22.5097
115.0	-27.0	11.0274
115.0	-26.0	2.9673
115.0	-25.0	1.5582
115.0	-24.0	-17.4905
115.0	-23.0	23.1513
115.0	-22.0	1.4661
115.0	-21.0	13.4402
115.0	-20.0	-25.4368
115.0	-19.0	-69.2299
115.0	-18.0	-24.2992
115.0	-17.0	56.2964
115.0	-16.0	-23.8287
115.0	-15.0	-11.1536
115.0	-14.0	-5.6573
115.0	-13.0	-6.1238
115.0	-12.0	13.773
115.0	-11.0	-92.4251
115.0	-10.0	-143.5857
115.0	-9.0	70.6434
115.0	-8.0	17.7205
115.0	-7.0	49.6735
115.0	-6.0	36.6828
115.0	-5.0	42.6228
115.0	-4.0	29.525
115.0	-3.0	-9.2599
115.0	-2.0	31.6191
115.0	-1.0	27.7956
115.0	0.0	57.4769
115.0	1.0	55.916
115.0	2.0	35.9816
115.0	3.0	9.2142
115.0	4.0	57.1722
115.0	5.0	11.0104
115.0	6.0	73.737
115.0	7.0	-47.4325
115.0	8.0	13.5604
115.0	9.0	22.0049
115.0	10.0	20.9818
115.0	11.0	47.7367
115.0	12.0	3.7953
115.0	13.0	11.4444
115.0	14.0	25.5787
115.0	15.0	9.6755
115.0	16.0	-18.6308
115.0	17.0	-5.7421
115.0	18.0	-4.8984
115.0	19.0	-14.654
115.0	20.0	1.9894
115.0	21.0	-0.1595
115.0	22.0	-3.5698
115.0	23.0	3.5411
115.0	24.0	-3.5991
115.0	25.0	6.3678
115.0	26.0	-4.9985
115.0	27.0	-3.3552
115.0	28.0	-19.2258
115.0	29.0	24.8429
115.0	30.0	-1.2744
115.0	31.0	-30.5787
115.0	32.0	-17.9205
115.0	33.0	-24.7271
115.0	34.0	-24.0442
115.0	35.0	-30.2726
115.0	36.0	-26.2837
115.0	37.0	-24.245
115.0	38.0	-20.8083
115.0	39.0	-10.6763
115.0	40.0	29.9674
115.0	41.0	-9.4806
115.0	42.0	-2.6164
115.0	43.0	0.3575
115.0	44.0	-1.3318
115.0	45.0	20.9075
115.0	46.0	7.797
115.0	47.0	11.2644
115.0	48.0	-16.0392
115.0	49.0	-6.4999
115.0	50.0	-11.803
115.0	51.0	-18.2652
115.0	52.0	-26.5376
115.0	53.0	-18.3788
115.0	54.0	-30.0055
115.0	55.0	-28.4408
115.0	56.0	52.3295
115.0	57.0	19.9158
115.0	58.0	-14.0421
115.0	59.0	30.069
115.0	60.0	-62.8048
115.0	61.0	-63.1865
115.0	62.0	-33.6849
115.0	63.0	-29.7841
115.0	64.0	-23.9929
115.0	65.0	-13.1228
115.0	66.0	14.3613
115.0	67.0	15.2415
115.0	68.0	-10.2977
115.0	69.0	-7.3155
115.0	70.0	-13.5388
115.0	71.0	8.0414
115.0	72.0	-4.2652
115.0	73.0	-30.3004
115.0	74.0	-20.9196
115.0	75.0	-4.2951
115.0	76.0	-12.3456
115.0	77.0	1.1616
115.0	78.0	7.7144
115.0	79.0	-7.7357
115.0	80.0	-4.0007
115.0	81.0	0.6499
115.0	82.0	22.4157
115.0	83.0	-0.5254
115.0	84.0	2.3651
115.0	85.0	17.8775
115.0	86.0	-1.694
115.0	87.0	-4.4651
115.0	88.0	-6.5707
115.0	89.0	16.1652
115.0	90.0	19.9524
116.0	-90.0	-12.6846
116.0	-89.0	-27.5903
116.0	-88.0	-38.527
116.0	-87.0	-48.2313
116.0	-86.0	-36.2696
116.0	-85.0	-6.2798
116.0	-84.0	3.0562
116.0	-83.0	-21.8322
116.0	-82.0	-9.8777
116.0	-81.0	-11.6014
116.0	-80.0	-5.7615
116.0	-79.0	10.9898
116.0	-78.0	-17.5064
116.0	-77.0	-31.185
116.0	-76.0	-53.9957
116.0	-75.0	-74.5784
116.0	-74.0	-59.9421
116.0	-73.0	6.7072
116.0	-72.0	7.9682
116.0	-71.0	10.6138
116.0	-70.0	-0.2376
116.0	-69.0	0.9327
116.0	-68.0	5.2813
116.0	-67.0	-28.7983
116.0	-66.0	-25.6478
116.0	-65.0	24.0679
116.0	-64.0	5.3846
116.0	-63.0	-10.8844
116.0	-62.0	-33.8555
116.0	-61.0	-13.0012
116.0	-60.0	-3.0471
116.0	-59.0	-3.9681
116.0	-58.0	8.5048
116.0	-57.0	-5.7493
116.0	-56.0	-3.0651
116.0	-55.0	-6.4152
116.0	-54.0	-1.7017
116.0	-53.0	-3.3585
116.0	-52.0	0.5067
116.0	-51.0	-0.1426
116.0	-50.0	-0.4625
116.0	-49.0	-3.867
116.0	-48.0	-5.1664
116.0	-47.0	-11.1689
116.0	-46.0	-15.0888
116.0	-45.0	-10.342
116.0	-44.0	-10.8621
116.0	-43.0	-20.0877
116.0	-42.0	-15.7107
116.0	-41.0	-16.1029
116.0	-40.0	-12.6752
116.0	-39.0	-26.9905
116.0	-38.0	14.3197
116.0	-37.0	-30.4709
116.0	-36.0	-53.6154
116.0	-35.0	8.0475
116.0	-34.0	41.3496
116.0	-33.0	48.2523
116.0	-32.0	-48.3836
116.0	-31.0	-31.9432
116.0	-30.0	8.6387
116.0	-29.0	3.0598
116.0	-28.0	7.4673
116.0	-27.0	22.315
116.0	-26.0	-16.9195
116.0	-25.0	6.203
116.0	-24.0	14.5334
116.0	-23.0	20.2651
116.0	-22.0	36.3635
116.0	-21.0	40.9509
116.0	-20.0	19.0921
116.0	-19.0	15.4079
116.0	-18.0	-16.7871
116.0	-17.0	-48.0416
116.0	-16.0	-12.8541
116.0	-15.0	-3.3834
116.0	-14.0	-1.4451
116.0	-13.0	25.4103
116.0	-12.0	27.1007
116.0	-11.0	-23.0624
116.0	-10.0	-103.81
116.0	-9.0	89.6268
116.0	-8.0	-64.1889
116.0	-7.0	57.7357
116.0	-6.0	35.8148
116.0	-5.0	34.3259
116.0	-4.0	47.5062
116.0	-3.0	47.1613
116.0	-2.0	60.232
116.0	-1.0	57.4695
116.0	0.0	27.5963
116.0	1.0	97.1066
116.0	2.0	65.6745
116.0	3.0	72.2959
116.0	4.0	88.3361
116.0	5.0	25.146
116.0	6.0	37.4841
116.0	7.0	75.5963
116.0	8.0	-44.0713
116.0	9.0	17.6616
116.0	10.0	23.9833
116.0	11.0	-11.4107
116.0	12.0	-23.7586
116.0	13.0	13.4399
116.0	14.0	6.4996
116.0	15.0	5.9974
116.0	16.0	10.9489
116.0	17.0	4.4066
116.0	18.0	4.8913
116.0	19.0	-10.0017
116.0	20.0	2.4835
116.0	21.0	19.5943
116.0	22.0	-9.954
116.0	23.0	-5.9716
116.0	24.0	-10.9414
116.0	25.0	-15.6347
116.0	26.0	-7.619
116.0	27.0	1.621
116.0	28.0	-17.4191
116.0	29.0	-9.4518
116.0	30.0	-15.3764
116.0	31.0	10.8765
116.0	32.0	-22.2214
116.0	33.0	-19.4566
116.0	34.0	-22.218
116.0	35.0	-23.2667
116.0	36.0	-13.8557
116.0	37.0	-15.2342
116.0	38.0	-19.6797
116.0	39.0	-21.8277
116.0	40.0	20.4993
116.0	41.0	10.2622
116.0	42.0	4.176
116.0	43.0	17.2642
116.0	44.0	-6.5974
116.0	45.0	-1.1076
116.0	46.0	-5.9688
116.0	47.0	-9.3785
116.0	48.0	-11.5343
116.0	49.0	-13.7055
116.0	50.0	-5.6967
116.0	51.0	-3.9062
116.0	52.0	5.3846
116.0	53.0	-21.7102
116.0	54.0	-31.6538
116.0	55.0	-5.4644
116.0	56.0	24.3648
116.0	57.0	-8.3402
116.0	58.0	18.9776
116.0	59.0	-10.2095
116.0	60.0	-36.3641
116.0	61.0	-52.0297
116.0	62.0	-19.259
116.0	63.0	-51.9868
116.0	64.0	-36.9421
116.0	65.0	-33.9771
116.0	66.0	-8.0618
116.0	67.0	-1.6281
116.0	68.0	10.373
116.0	69.0	1.0194
116.0	70.0	-7.9083
116.0	71.0	2.2414
116.0	72.0	1.6373
116.0	73.0	-30.3199
116.0	74.0	5.2441
116.0	75.0	-7.9459
116.0	76.0	1.4725
116.0	77.0	-10.5838
116.0	78.0	-9.0417
116.0	79.0	-0.8588
116.0	80.0	6.5959
116.0	81.0	1.6536
116.0	82.0	10.8164
116.0	83.0	-25.2441
116.0	84.0	13.7613
116.0	85.0	17.8948
116.0	86.0	-2.8408
116.0	87.0	-7.2648
116.0	88.0	-3.5537
116.0	89.0	15.5247
116.0	90.0	19.9524
117.0	-90.0	-12.6846
117.0	-89.0	-27.7464
117.0	-88.0	-39.4885
117.0	-87.0	-48.7194
117.0	-86.0	-36.0836
117.0	-85.0	-7.2877
117.0	-84.0	0.2699
117.0	-83.0	-27.0682
117.0	-82.0	-11.8981
117.0	-81.0	-6.9521
117.0	-80.0	-4.9485
117.0	-79.0	8.225
117.0	-78.0	-23.4048
117.0	-77.0	-40.2784
117.0	-76.0	-51.2757
117.0	-75.0	-67.1296
117.0	-74.0	-55.8254
117.0	-73.0	17.6972
117.0	-72.0	1.6559
117.0	-71.0	-1.8856
117.0	-70.0	1.3306
117.0	-69.0	3.851
117.0	-68.0	1.3795
117.0	-67.0	-44.5471
117.0	-66.0	-29.005
117.0	-65.0	-6.755
117.0	-64.0	-14.6456
117.0	-63.0	-13.8625
117.0	-62.0	-25.6683
117.0	-61.0	-13.9314
117.0	-60.0	-4.6594
117.0	-59.0	-7.739
117.0	-58.0	-2.3481
117.0	-57.0	-5.5186
117.0	-56.0	-3.5492
117.0	-55.0	-9.1299
117.0	-54.0	-12.6601
117.0	-53.0	-4.1403
117.0	-52.0	3.9514
117.0	-51.0	-4.1284
117.0	-50.0	-5.3616
117.0	-49.0	6.1308
117.0	-48.0	-0.9895
117.0	-47.0	-3.2843
117.0	-46.0	-16.4291
117.0	-45.0	-12.1108
117.0	-44.0	-10.9631
117.0	-43.0	-18.448
117.0	-42.0	-5.6457
117.0	-41.0	-15.0728
117.0	-40.0	-27.1122
117.0	-39.0	-23.7705
117.0	-38.0	-43.9741
117.0	-37.0	-39.2695
117.0	-36.0	-44.6439
117.0	-35.0	-2.3813
117.0	-34.0	32.3885
117.0	-33.0	27.5624
117.0	-32.0	12.2603
117.0	-31.0	3.682
117.0	-30.0	2.6154
117.0	-29.0	12.3262
117.0	-28.0	3.3275
117.0	-27.0	13.7216
117.0	-26.0	-10.6629
117.0	-25.0	-48.6163
117.0	-24.0	14.7568
117.0	-23.0	-0.1155
117.0	-22.0	26.9018
117.0	-21.0	-2.0822
117.0	-20.0	-23.4259
117.0	-19.0	18.687
117.0	-18.0	-36.1418
117.0	-17.0	-22.1881
117.0	-16.0	-23.8535
117.0	-15.0	-16.4116
117.0	-14.0	-11.6265
117.0	-13.0	5.3776
117.0	-12.0	29.8132
117.0	-11.0	-18.577
117.0	-10.0	-89.9556
117.0	-9.0	210.2319
117.0	-8.0	-46.8414
117.0	-7.0	32.9164
117.0	-6.0	44.0015
117.0	-5.0	56.892
117.0	-4.0	56.8906
117.0	-3.0	47.6116
117.0	-2.0	51.152
117.0	-1.0	7.3987
117.0	0.0	34.1789
117.0	1.0	34.6689
117.0	2.0	40.8059
117.0	3.0	71.9777
117.0	4.0	16.4444
117.0	5.0	34.4683
117.0	6.0	83.6833
117.0	7.0	55.0908
117.0	8.0	52.0285
117.0	9.0	-16.2223
117.0	10.0	5.8421
117.0	11.0	44.8919
117.0	12.0	81.0884
117.0	13.0	13.4325
117.0	14.0	22.2027
117.0	15.0	-12.9795
117.0	16.0	8.3471
117.0	17.0	5.6039
117.0	18.0	5.1527
117.0	19.0	-18.7202
117.0	20.0	8.6738
117.0	21.0	13.9478
117.0	22.0	9.0637
117.0	23.0	6.5224
117.0	24.0	6.6304
117.0	25.0	-2.673
117.0	26.0	-2.3042
117.0	27.0	33.1733
117.0	28.0	-5.073
117.0	29.0	-6.1564
117.0	30.0	-10.01
117.0	31.0	-11.9432
117.0	32.0	-1.5105
117.0	33.0	-1.71
117.0	34.0	3.6276
117.0	35.0	-6.2381
117.0	36.0	-7.535
117.0	37.0	-23.5012
117.0	38.0	-13.052
117.0	39.0	1.5778
117.0	40.0	-16.4304
117.0	41.0	-2.1236
117.0	42.0	9.052
117.0	43.0	23.355
117.0	44.0	30.7519
117.0	45.0	15.6947
117.0	46.0	11.8002
117.0	47.0	-12.5921
117.0	48.0	-14.5257
117.0	49.0	-20.0129
117.0	50.0	-3.0172
117.0	51.0	-0.0875
117.0	52.0	-17.1039
117.0	53.0	-25.8227
117.0	54.0	-41.8958
117.0	55.0	2.3131
117.0	56.0	71.6929
117.0	57.0	45.3706
117.0	58.0	39.7573
117.0	59.0	-41.9848
117.0	60.0	-10.3534
117.0	61.0	-37.4362
117.0	62.0	18.4785
117.0	63.0	-57.1337
117.0	64.0	-34.1563
117.0	65.0	-23.4666
117.0	66.0	-20.3168
117.0	67.0	5.4309
117.0	68.0	13.3434
117.0	69.0	1.9819
117.0	70.0	-11.0017
117.0	71.0	-6.3402
117.0	72.0	0.0714
117.0	73.0	-24.6111
117.0	74.0	0.8374
117.0	75.0	-10.3435
117.0	76.0	-9.4173
117.0	77.0	10.3635
117.0	78.0	-35.2466
117.0	79.0	-4.4997
117.0	80.0	16.2336
117.0	81.0	12.7249
117.0	82.0	-4.7031
117.0	83.0	-21.0203
117.0	84.0	14.3844
117.0	85.0	15.1229
117.0	86.0	-4.4928
117.0	87.0	-8.6603
117.0	88.0	-5.5479
117.0	89.0	14.3655
117.0	90.0	19.9524
118.0	-90.0	-12.6846
118.0	-89.0	-27.8876
118.0	-88.0	-40.3731
118.0	-87.0	-49.4222
118.0	-86.0	-35.7104
118.0	-85.0	-9.1244
118.0	-84.0	-2.2615
118.0	-83.0	-32.6098
118.0	-82.0	-15.0227
118.0	-81.0	-4.6658
118.0	-80.0	-8.2549
118.0	-79.0	4.2412
118.0	-78.0	-25.6062
118.0	-77.0	-44.2685
118.0	-76.0	-45.3986
118.0	-75.0	-56.7742
118.0	-74.0	-53.4803
118.0	-73.0	23.7558
118.0	-72.0	1.1023
118.0	-71.0	-7.6357
118.0	-70.0	4.0079
118.0	-69.0	6.4587
118.0	-68.0	1.7106
118.0	-67.0	-47.1072
118.0	-66.0	1.2274
118.0	-65.0	-17.8273
118.0	-64.0	-29.9492
118.0	-63.0	-23.4902
118.0	-62.0	-21.4676
118.0	-61.0	-9.1739
118.0	-60.0	-7.2512
118.0	-59.0	-5.719
118.0	-58.0	-0.507
118.0	-57.0	-6.2059
118.0	-56.0	-2.2196
118.0	-55.0	-7.0392
118.0	-54.0	6.7073
118.0	-53.0	0.1893
118.0	-52.0	-8.1423
118.0	-51.0	-0.669
118.0	-50.0	-2.1385
118.0	-49.0	-9.1233
118.0	-48.0	-15.7822
118.0	-47.0	-3.7913
118.0	-46.0	-14.209
118.0	-45.0	-4.4967
118.0	-44.0	-3.4995
118.0	-43.0	-11.5852
118.0	-42.0	-13.531
118.0	-41.0	-23.3677
118.0	-40.0	-23.4174
118.0	-39.0	-24.1416
118.0	-38.0	17.1462
118.0	-37.0	-58.4495
118.0	-36.0	-55.4551
118.0	-35.0	-18.9906
118.0	-34.0	24.1736
118.0	-33.0	11.2062
118.0	-32.0	-12.213
118.0	-31.0	-2.0463
118.0	-30.0	-20.3355
118.0	-29.0	-4.2581
118.0	-28.0	-19.5173
118.0	-27.0	-17.6411
118.0	-26.0	-22.368
118.0	-25.0	-53.1407
118.0	-24.0	-7.1434
118.0	-23.0	-23.8142
118.0	-22.0	-16.4789
118.0	-21.0	-29.9176
118.0	-20.0	2.0343
118.0	-19.0	-9.0187
118.0	-18.0	1.0062
118.0	-17.0	-52.5523
118.0	-16.0	-33.8236
118.0	-15.0	-17.2474
118.0	-14.0	-12.2433
118.0	-13.0	0.5747
118.0	-12.0	8.3277
118.0	-11.0	-32.337
118.0	-10.0	-87.3308
118.0	-9.0	12.9472
118.0	-8.0	-25.0001
118.0	-7.0	48.5775
118.0	-6.0	37.5786
118.0	-5.0	12.7149
118.0	-4.0	-7.1532
118.0	-3.0	63.4003
118.0	-2.0	-38.4242
118.0	-1.0	22.0994
118.0	0.0	6.1329
118.0	1.0	65.3106
118.0	2.0	13.3993
118.0	3.0	22.6895
118.0	4.0	34.2176
118.0	5.0	78.4868
118.0	6.0	-11.4086
118.0	7.0	21.766
118.0	8.0	25.5297
118.0	9.0	89.2233
118.0	10.0	20.4973
118.0	11.0	2.2519
118.0	12.0	8.1454
118.0	13.0	10.7273
118.0	14.0	17.2102
118.0	15.0	18.8673
118.0	16.0	37.201
118.0	17.0	13.0764
118.0	18.0	13.9261
118.0	19.0	22.0405
118.0	20.0	-11.3138
118.0	21.0	8.0436
118.0	22.0	33.8285
118.0	23.0	14.7876
118.0	24.0	-0.787
118.0	25.0	-6.7926
118.0	26.0	-9.7592
118.0	27.0	24.3481
118.0	28.0	88.92
118.0	29.0	-2.8453
118.0	30.0	13.8901
118.0	31.0	-10.5751
118.0	32.0	2.3985
118.0	33.0	8.0372
118.0	34.0	-2.0962
118.0	35.0	-3.3874
118.0	36.0	27.5106
118.0	37.0	-13.3177
118.0	38.0	-5.571
118.0	39.0	-10.6671
118.0	40.0	16.2024
118.0	41.0	6.1862
118.0	42.0	37.5351
118.0	43.0	14.6138
118.0	44.0	-21.8598
118.0	45.0	4.7444
118.0	46.0	6.3363
118.0	47.0	10.3923
118.0	48.0	-4.8432
118.0	49.0	-3.8264
118.0	50.0	-6.9991
118.0	51.0	-19.8214
118.0	52.0	-12.6275
118.0	53.0	-24.6258
118.0	54.0	1.025
118.0	55.0	19.6126
118.0	56.0	-13.6984
118.0	57.0	17.469
118.0	58.0	-37.4868
118.0	59.0	-24.5663
118.0	60.0	-20.039
118.0	61.0	1.0924
118.0	62.0	22.8473
118.0	63.0	-27.4863
118.0	64.0	-18.7728
118.0	65.0	-24.4709
118.0	66.0	-1.8989
118.0	67.0	5.9168
118.0	68.0	13.2866
118.0	69.0	-6.0289
118.0	70.0	-2.8557
118.0	71.0	-6.0297
118.0	72.0	-3.1217
118.0	73.0	-14.9378
118.0	74.0	-14.585
118.0	75.0	-15.3164
118.0	76.0	1.0646
118.0	77.0	15.8644
118.0	78.0	-36.0878
118.0	79.0	-3.8198
118.0	80.0	13.9935
118.0	81.0	18.9034
118.0	82.0	-14.8644
118.0	83.0	-2.4386
118.0	84.0	16.2019
118.0	85.0	9.6328
118.0	86.0	-5.2051
118.0	87.0	-6.3382
118.0	88.0	-11.6865
118.0	89.0	12.5262
118.0	90.0	19.9524
119.0	-90.0	-12.6846
119.0	-89.0	-28.0092
119.0	-88.0	-41.2954
119.0	-87.0	-50.0551
119.0	-86.0	-35.399
119.0	-85.0	-10.931
119.0	-84.0	-5.1
119.0	-83.0	-38.4071
119.0	-82.0	-19.7312
119.0	-81.0	-4.5733
119.0	-80.0	-15.7263
119.0	-79.0	-1.2618
119.0	-78.0	-25.7329
119.0	-77.0	-46.6798
119.0	-76.0	-38.7435
119.0	-75.0	-45.4323
119.0	-74.0	-53.581
119.0	-73.0	23.6393
119.0	-72.0	6.5889
119.0	-71.0	-5.0905
119.0	-70.0	6.0422
119.0	-69.0	5.2381
119.0	-68.0	5.8506
119.0	-67.0	-41.2447
119.0	-66.0	22.8545
119.0	-65.0	-21.5941
119.0	-64.0	-24.2747
119.0	-63.0	-24.0241
119.0	-62.0	-21.7518
119.0	-61.0	-7.4885
119.0	-60.0	1.5041
119.0	-59.0	-3.0522
119.0	-58.0	0.1218
119.0	-57.0	-6.8534
119.0	-56.0	-2.3051
119.0	-55.0	-0.7105
119.0	-54.0	-10.7762
119.0	-53.0	-7.833
119.0	-52.0	-0.1041
119.0	-51.0	-9.7473
119.0	-50.0	3.7982
119.0	-49.0	-3.9378
119.0	-48.0	0.5074
119.0	-47.0	-12.7319
119.0	-46.0	-8.1409
119.0	-45.0	-11.2174
119.0	-44.0	-14.4665
119.0	-43.0	-13.1918
119.0	-42.0	-7.4329
119.0	-41.0	-10.2725
119.0	-40.0	-16.7014
119.0	-39.0	-13.5878
119.0	-38.0	-41.7824
119.0	-37.0	-50.1834
119.0	-36.0	-60.7704
119.0	-35.0	-11.8147
119.0	-34.0	-10.1828
119.0	-33.0	-7.2283
119.0	-32.0	-1.4638
119.0	-31.0	-14.0989
119.0	-30.0	-8.3366
119.0	-29.0	5.6894
119.0	-28.0	-14.6147
119.0	-27.0	-25.3653
119.0	-26.0	15.0749
119.0	-25.0	-14.4893
119.0	-24.0	8.9093
119.0	-23.0	8.0837
119.0	-22.0	-29.4679
119.0	-21.0	-29.4643
119.0	-20.0	-1.3171
119.0	-19.0	18.0842
119.0	-18.0	15.3553
119.0	-17.0	16.6155
119.0	-16.0	-0.9739
119.0	-15.0	-31.2258
119.0	-14.0	-9.9717
119.0	-13.0	1.094
119.0	-12.0	14.3149
119.0	-11.0	-99.3501
119.0	-10.0	11.5224
119.0	-9.0	-19.8439
119.0	-8.0	-67.5454
119.0	-7.0	75.3575
119.0	-6.0	31.0645
119.0	-5.0	21.7496
119.0	-4.0	-19.078
119.0	-3.0	146.7733
119.0	-2.0	-18.0865
119.0	-1.0	12.2377
119.0	0.0	-23.5476
119.0	1.0	68.2283
119.0	2.0	-10.1895
119.0	3.0	-13.4613
119.0	4.0	32.4078
119.0	5.0	45.3228
119.0	6.0	50.5301
119.0	7.0	7.7016
119.0	8.0	63.4276
119.0	9.0	-21.3965
119.0	10.0	72.6951
119.0	11.0	58.76
119.0	12.0	31.9972
119.0	13.0	5.4585
119.0	14.0	-18.8746
119.0	15.0	-33.135
119.0	16.0	-4.8319
119.0	17.0	-40.2459
119.0	18.0	-17.9677
119.0	19.0	20.9228
119.0	20.0	14.7778
119.0	21.0	10.4199
119.0	22.0	17.0932
119.0	23.0	25.406
119.0	24.0	4.6248
119.0	25.0	4.2732
119.0	26.0	34.9971
119.0	27.0	49.6574
119.0	28.0	-22.4672
119.0	29.0	-8.9526
119.0	30.0	52.5093
119.0	31.0	-10.7437
119.0	32.0	6.4843
119.0	33.0	-12.1253
119.0	34.0	0.3943
119.0	35.0	-6.3967
119.0	36.0	14.9797
119.0	37.0	-0.506
119.0	38.0	-15.0765
119.0	39.0	-15.8641
119.0	40.0	-2.4826
119.0	41.0	15.9305
119.0	42.0	24.4943
119.0	43.0	-7.7098
119.0	44.0	9.3022
119.0	45.0	14.2401
119.0	46.0	11.7482
119.0	47.0	10.6379
119.0	48.0	16.5406
119.0	49.0	8.79
119.0	50.0	-4.3911
119.0	51.0	-2.1734
119.0	52.0	3.981
119.0	53.0	-22.0163
119.0	54.0	7.3839
119.0	55.0	32.373
119.0	56.0	6.7154
119.0	57.0	-38.1676
119.0	58.0	23.3476
119.0	59.0	-50.8074
119.0	60.0	-37.3082
119.0	61.0	-22.6442
119.0	62.0	-122.5719
119.0	63.0	3.9369
119.0	64.0	-11.5238
119.0	65.0	-20.9092
119.0	66.0	-5.4581
119.0	67.0	3.0105
119.0	68.0	11.6464
119.0	69.0	5.625
119.0	70.0	1.7775
119.0	71.0	-7.2225
119.0	72.0	-11.396
119.0	73.0	-12.239
119.0	74.0	-15.4048
119.0	75.0	-4.7995
119.0	76.0	3.2208
119.0	77.0	12.6654
119.0	78.0	-29.6695
119.0	79.0	1.7142
119.0	80.0	10.9558
119.0	81.0	8.1591
119.0	82.0	-5.2497
119.0	83.0	10.4925
119.0	84.0	19.3825
119.0	85.0	6.1294
119.0	86.0	-5.5347
119.0	87.0	-4.5728
119.0	88.0	-20.2397
119.0	89.0	9.8886
119.0	90.0	19.9524
120.0	-90.0	-12.6846
120.0	-89.0	-28.1127
120.0	-88.0	-42.2019
120.0	-87.0	-50.3689
120.0	-86.0	-35.0576
120.0	-85.0	-12.7679
120.0	-84.0	-7.9244
120.0	-83.0	-43.1854
120.0	-82.0	-25.1089
120.0	-81.0	-6.9079
120.0	-80.0	-26.3645
120.0	-79.0	-8.3394
120.0	-78.0	-26.2514
120.0	-77.0	-49.1761
120.0	-76.0	-33.9145
120.0	-75.0	-35.189
120.0	-74.0	-56.1766
120.0	-73.0	17.0963
120.0	-72.0	14.0916
120.0	-71.0	1.9953
120.0	-70.0	5.2067
120.0	-69.0	0.4963
120.0	-68.0	11.4021
120.0	-67.0	-30.5785
120.0	-66.0	14.7178
120.0	-65.0	-26.4037
120.0	-64.0	-36.0213
120.0	-63.0	-19.1494
120.0	-62.0	-31.9544
120.0	-61.0	-7.3419
120.0	-60.0	-8.0662
120.0	-59.0	-8.8951
120.0	-58.0	-6.0888
120.0	-57.0	-10.4033
120.0	-56.0	-3.3456
120.0	-55.0	-6.3529
120.0	-54.0	-6.0467
120.0	-53.0	8.8392
120.0	-52.0	13.4999
120.0	-51.0	-18.0777
120.0	-50.0	4.0976
120.0	-49.0	-2.4347
120.0	-48.0	-9.6394
120.0	-47.0	-10.3821
120.0	-46.0	-2.0792
120.0	-45.0	-3.8242
120.0	-44.0	-8.8579
120.0	-43.0	-9.5518
120.0	-42.0	-17.8717
120.0	-41.0	-15.7591
120.0	-40.0	-20.3555
120.0	-39.0	-21.2149
120.0	-38.0	-22.224
120.0	-37.0	-58.4394
120.0	-36.0	-75.5145
120.0	-35.0	-51.5732
120.0	-34.0	-30.6288
120.0	-33.0	-11.322
120.0	-32.0	-4.0815
120.0	-31.0	-12.3881
120.0	-30.0	-2.8894
120.0	-29.0	-9.6337
120.0	-28.0	-17.1918
120.0	-27.0	-14.4522
120.0	-26.0	-6.3438
120.0	-25.0	-7.2013
120.0	-24.0	40.5814
120.0	-23.0	-24.7806
120.0	-22.0	1.517
120.0	-21.0	-17.9322
120.0	-20.0	6.4884
120.0	-19.0	24.2329
120.0	-18.0	-7.7973
120.0	-17.0	19.1839
120.0	-16.0	-0.1454
120.0	-15.0	6.645
120.0	-14.0	28.1347
120.0	-13.0	30.2724
120.0	-12.0	16.52
120.0	-11.0	-32.8083
120.0	-10.0	176.0861
120.0	-9.0	33.2881
120.0	-8.0	-122.113
120.0	-7.0	-11.2565
120.0	-6.0	43.5902
120.0	-5.0	76.35
120.0	-4.0	1.5899
120.0	-3.0	118.1916
120.0	-2.0	173.6283
120.0	-1.0	102.7555
120.0	0.0	78.1156
120.0	1.0	-9.1216
120.0	2.0	-48.5325
120.0	3.0	25.3329
120.0	4.0	9.7331
120.0	5.0	107.6057
120.0	6.0	60.4212
120.0	7.0	22.9549
120.0	8.0	11.588
120.0	9.0	75.7329
120.0	10.0	-6.1174
120.0	11.0	46.9162
120.0	12.0	61.1533
120.0	13.0	-125.5665
120.0	14.0	0.2667
120.0	15.0	107.5442
120.0	16.0	183.049
120.0	17.0	-41.4282
120.0	18.0	-25.6761
120.0	19.0	-29.1289
120.0	20.0	4.2096
120.0	21.0	-38.9525
120.0	22.0	28.0762
120.0	23.0	-0.7434
120.0	24.0	17.8766
120.0	25.0	32.2626
120.0	26.0	8.7306
120.0	27.0	24.4568
120.0	28.0	5.2688
120.0	29.0	-6.2375
120.0	30.0	7.9701
120.0	31.0	-5.5089
120.0	32.0	1.2122
120.0	33.0	-2.1071
120.0	34.0	0.6625
120.0	35.0	-0.4365
120.0	36.0	9.4484
120.0	37.0	27.1667
120.0	38.0	-4.1815
120.0	39.0	-30.7859
120.0	40.0	8.6155
120.0	41.0	34.2014
120.0	42.0	27.5734
120.0	43.0	-1.5317
120.0	44.0	-4.1515
120.0	45.0	10.5801
120.0	46.0	-1.8613
120.0	47.0	34.9424
120.0	48.0	15.2739
120.0	49.0	7.2355
120.0	50.0	8.1328
120.0	51.0	4.3153
120.0	52.0	0.3019
120.0	53.0	2.4464
120.0	54.0	-17.6668
120.0	55.0	-11.4624
120.0	56.0	-11.2679
120.0	57.0	43.4385
120.0	58.0	-9.6256
120.0	59.0	-34.2069
120.0	60.0	-31.9444
120.0	61.0	-15.3353
120.0	62.0	-104.6063
120.0	63.0	-14.4111
120.0	64.0	-25.5682
120.0	65.0	-21.7865
120.0	66.0	-16.0355
120.0	67.0	7.3088
120.0	68.0	10.496
120.0	69.0	13.0783
120.0	70.0	14.8784
120.0	71.0	12.6261
120.0	72.0	-23.5938
120.0	73.0	-13.7743
120.0	74.0	-10.6068
120.0	75.0	-5.4607
120.0	76.0	1.2328
120.0	77.0	17.1589
120.0	78.0	-15.3233
120.0	79.0	3.6653
120.0	80.0	23.4809
120.0	81.0	12.1126
120.0	82.0	24.29
120.0	83.0	16.63
120.0	84.0	19.6882
120.0	85.0	-0.1749
120.0	86.0	-5.4718
120.0	87.0	-7.0692
120.0	88.0	-29.5157
120.0	89.0	6.4124
120.0	90.0	19.9524
121.0	-90.0	-12.6846
121.0	-89.0	-28.2041
121.0	-88.0	-42.9233
121.0	-87.0	-50.6568
121.0	-86.0	-34.9123
121.0	-85.0	-14.9971
121.0	-84.0	-10.6044
121.0	-83.0	-47.1395
121.0	-82.0	-31.5978
121.0	-81.0	-11.6791
121.0	-80.0	-38.5697
121.0	-79.0	-16.566
121.0	-78.0	-27.4629
121.0	-77.0	-53.7848
121.0	-76.0	-32.3662
121.0	-75.0	-28.0369
121.0	-74.0	-60.8306
121.0	-73.0	3.1363
121.0	-72.0	18.2718
121.0	-71.0	9.5402
121.0	-70.0	1.3854
121.0	-69.0	-6.5567
121.0	-68.0	17.7695
121.0	-67.0	-17.0108
121.0	-66.0	0.3412
121.0	-65.0	-38.7316
121.0	-64.0	-34.3707
121.0	-63.0	-13.5924
121.0	-62.0	-17.2578
121.0	-61.0	-19.5201
121.0	-60.0	-10.0991
121.0	-59.0	-7.0029
121.0	-58.0	-5.1339
121.0	-57.0	-5.7497
121.0	-56.0	-4.7271
121.0	-55.0	-0.9359
121.0	-54.0	-8.0945
121.0	-53.0	-6.8537
121.0	-52.0	-9.4998
121.0	-51.0	-5.5588
121.0	-50.0	13.7497
121.0	-49.0	0.8
121.0	-48.0	12.334
121.0	-47.0	-6.5654
121.0	-46.0	-6.2837
121.0	-45.0	-21.4828
121.0	-44.0	-13.2565
121.0	-43.0	-16.3759
121.0	-42.0	-11.8069
121.0	-41.0	-20.558
121.0	-40.0	-25.8847
121.0	-39.0	-11.946
121.0	-38.0	-32.376
121.0	-37.0	-22.8563
121.0	-36.0	-70.9202
121.0	-35.0	-29.1635
121.0	-34.0	-1.5439
121.0	-33.0	-16.6131
121.0	-32.0	-14.6689
121.0	-31.0	-19.9534
121.0	-30.0	-35.4985
121.0	-29.0	-36.5502
121.0	-28.0	12.4274
121.0	-27.0	1.8734
121.0	-26.0	-8.9755
121.0	-25.0	5.5833
121.0	-24.0	7.7052
121.0	-23.0	-11.5136
121.0	-22.0	0.1616
121.0	-21.0	-1.3696
121.0	-20.0	54.3174
121.0	-19.0	27.321
121.0	-18.0	-0.0469
121.0	-17.0	13.3331
121.0	-16.0	41.3602
121.0	-15.0	29.3706
121.0	-14.0	-19.5242
121.0	-13.0	30.0836
121.0	-12.0	-33.8773
121.0	-11.0	6.5421
121.0	-10.0	47.2741
121.0	-9.0	40.7476
121.0	-8.0	-145.4565
121.0	-7.0	79.0517
121.0	-6.0	61.06
121.0	-5.0	-11.9372
121.0	-4.0	0.4916
121.0	-3.0	35.5006
121.0	-2.0	18.5032
121.0	-1.0	-119.3782
121.0	0.0	-23.6101
121.0	1.0	158.0289
121.0	2.0	16.2355
121.0	3.0	19.1635
121.0	4.0	34.6445
121.0	5.0	11.9726
121.0	6.0	161.7323
121.0	7.0	-50.0701
121.0	8.0	19.3314
121.0	9.0	8.3991
121.0	10.0	24.4092
121.0	11.0	55.0022
121.0	12.0	42.8713
121.0	13.0	78.6355
121.0	14.0	-14.4689
121.0	15.0	24.6497
121.0	16.0	94.964
121.0	17.0	249.6024
121.0	18.0	210.3906
121.0	19.0	-27.7225
121.0	20.0	-41.4607
121.0	21.0	-40.601
121.0	22.0	-17.1446
121.0	23.0	249.6135
121.0	24.0	29.342
121.0	25.0	-6.65
121.0	26.0	13.7783
121.0	27.0	2.1141
121.0	28.0	2.4139
121.0	29.0	4.1967
121.0	30.0	-10.8403
121.0	31.0	2.6282
121.0	32.0	18.1398
121.0	33.0	11.1878
121.0	34.0	8.5362
121.0	35.0	-18.2011
121.0	36.0	25.1239
121.0	37.0	16.4261
121.0	38.0	5.511
121.0	39.0	11.2823
121.0	40.0	-14.0856
121.0	41.0	-0.635
121.0	42.0	-1.3475
121.0	43.0	2.019
121.0	44.0	-4.2206
121.0	45.0	1.1548
121.0	46.0	17.311
121.0	47.0	8.5424
121.0	48.0	10.4623
121.0	49.0	9.904
121.0	50.0	23.0362
121.0	51.0	2.1179
121.0	52.0	7.0129
121.0	53.0	9.9149
121.0	54.0	5.2895
121.0	55.0	-27.784
121.0	56.0	22.3221
121.0	57.0	-57.2679
121.0	58.0	2.24
121.0	59.0	-24.0586
121.0	60.0	-23.6974
121.0	61.0	3.1241
121.0	62.0	-29.7722
121.0	63.0	-18.2302
121.0	64.0	-21.883
121.0	65.0	-35.2067
121.0	66.0	-10.6031
121.0	67.0	11.0238
121.0	68.0	-2.073
121.0	69.0	5.399
121.0	70.0	20.2365
121.0	71.0	21.168
121.0	72.0	-21.2465
121.0	73.0	-10.1745
121.0	74.0	-7.658
121.0	75.0	0.7332
121.0	76.0	2.4198
121.0	77.0	26.6704
121.0	78.0	-9.8586
121.0	79.0	15.1201
121.0	80.0	5.8749
121.0	81.0	-21.5075
121.0	82.0	35.2308
121.0	83.0	27.6015
121.0	84.0	7.7246
121.0	85.0	-4.1591
121.0	86.0	-5.3006
121.0	87.0	-11.5383
121.0	88.0	-38.2451
121.0	89.0	2.1521
121.0	90.0	19.9524
122.0	-90.0	-12.6846
122.0	-89.0	-28.2908
122.0	-88.0	-43.4091
122.0	-87.0	-50.8795
122.0	-86.0	-35.0093
122.0	-85.0	-17.4594
122.0	-84.0	-12.7443
122.0	-83.0	-49.9121
122.0	-82.0	-38.1399
122.0	-81.0	-17.7266
122.0	-80.0	-50.8132
122.0	-79.0	-24.3944
122.0	-78.0	-30.8243
122.0	-77.0	-60.2273
122.0	-76.0	-33.6872
122.0	-75.0	-23.8473
122.0	-74.0	-65.8919
122.0	-73.0	-16.4746
122.0	-72.0	14.2761
122.0	-71.0	13.8011
122.0	-70.0	-0.886
122.0	-69.0	-10.6649
122.0	-68.0	21.9092
122.0	-67.0	-1.8451
122.0	-66.0	27.1522
122.0	-65.0	-40.2548
122.0	-64.0	-47.0637
122.0	-63.0	-18.6085
122.0	-62.0	-12.1209
122.0	-61.0	-15.6046
122.0	-60.0	-8.659
122.0	-59.0	-4.7699
122.0	-58.0	-2.3506
122.0	-57.0	-5.7102
122.0	-56.0	-3.8425
122.0	-55.0	8.8088
122.0	-54.0	-1.9834
122.0	-53.0	-2.6535
122.0	-52.0	-5.3589
122.0	-51.0	2.8679
122.0	-50.0	10.2062
122.0	-49.0	-4.8352
122.0	-48.0	-28.5075
122.0	-47.0	-5.7694
122.0	-46.0	-11.647
122.0	-45.0	-16.0746
122.0	-44.0	-3.5715
122.0	-43.0	-15.2396
122.0	-42.0	-17.8842
122.0	-41.0	-15.2923
122.0	-40.0	-26.7888
122.0	-39.0	-25.1724
122.0	-38.0	-11.4723
122.0	-37.0	-43.7315
122.0	-36.0	-64.9631
122.0	-35.0	-60.0732
122.0	-34.0	-28.6275
122.0	-33.0	-32.7182
122.0	-32.0	-21.3788
122.0	-31.0	-19.5914
122.0	-30.0	-37.7048
122.0	-29.0	-6.9761
122.0	-28.0	-16.4533
122.0	-27.0	-8.9504
122.0	-26.0	-20.524
122.0	-25.0	30.1603
122.0	-24.0	5.4184
122.0	-23.0	8.1498
122.0	-22.0	16.8422
122.0	-21.0	19.3108
122.0	-20.0	18.3752
122.0	-19.0	4.089
122.0	-18.0	-6.9266
122.0	-17.0	42.9534
122.0	-16.0	16.2228
122.0	-15.0	39.73
122.0	-14.0	31.3727
122.0	-13.0	15.9166
122.0	-12.0	22.0774
122.0	-11.0	-15.5129
122.0	-10.0	-111.5036
122.0	-9.0	-84.2844
122.0	-8.0	25.1926
122.0	-7.0	-26.8931
122.0	-6.0	38.8882
122.0	-5.0	41.1201
122.0	-4.0	48.6607
122.0	-3.0	99.1244
122.0	-2.0	-6.3111
122.0	-1.0	79.8321
122.0	0.0	15.7179
122.0	1.0	197.4992
122.0	2.0	-3.2893
122.0	3.0	32.3398
122.0	4.0	32.8883
122.0	5.0	22.4884
122.0	6.0	55.955
122.0	7.0	158.1916
122.0	8.0	-71.8549
122.0	9.0	-56.4118
122.0	10.0	-96.4966
122.0	11.0	-22.741
122.0	12.0	44.3542
122.0	13.0	52.5292
122.0	14.0	21.9127
122.0	15.0	23.5955
122.0	16.0	50.7757
122.0	17.0	102.1392
122.0	18.0	127.6328
122.0	19.0	85.5525
122.0	20.0	51.3086
122.0	21.0	108.7441
122.0	22.0	-26.0265
122.0	23.0	-43.0132
122.0	24.0	-166.7773
122.0	25.0	24.7004
122.0	26.0	19.435
122.0	27.0	5.6093
122.0	28.0	2.6598
122.0	29.0	0.4037
122.0	30.0	0.7751
122.0	31.0	13.0418
122.0	32.0	6.0317
122.0	33.0	1.3413
122.0	34.0	3.2877
122.0	35.0	-1.67
122.0	36.0	5.0165
122.0	37.0	-1.0251
122.0	38.0	7.2492
122.0	39.0	33.4774
122.0	40.0	14.2839
122.0	41.0	-10.135
122.0	42.0	9.447
122.0	43.0	5.8179
122.0	44.0	0.9599
122.0	45.0	18.0329
122.0	46.0	12.5481
122.0	47.0	26.6428
122.0	48.0	9.2666
122.0	49.0	39.1909
122.0	50.0	17.4234
122.0	51.0	11.981
122.0	52.0	-3.6497
122.0	53.0	-8.1235
122.0	54.0	-3.7223
122.0	55.0	-3.0647
122.0	56.0	25.284
122.0	57.0	-32.951
122.0	58.0	-7.6428
122.0	59.0	-22.4091
122.0	60.0	-0.4372
122.0	61.0	17.7861
122.0	62.0	0.2691
122.0	63.0	-1.7756
122.0	64.0	-31.1214
122.0	65.0	-37.5639
122.0	66.0	-17.892
122.0	67.0	-0.0851
122.0	68.0	-11.5692
122.0	69.0	-16.1179
122.0	70.0	18.0292
122.0	71.0	26.2067
122.0	72.0	-4.2707
122.0	73.0	-25.8395
122.0	74.0	-8.8889
122.0	75.0	1.4564
122.0	76.0	0.3896
122.0	77.0	40.1083
122.0	78.0	-1.202
122.0	79.0	19.8196
122.0	80.0	-5.3029
122.0	81.0	-12.0201
122.0	82.0	37.3697
122.0	83.0	21.9052
122.0	84.0	0.2602
122.0	85.0	-6.4781
122.0	86.0	-5.7163
122.0	87.0	-15.046
122.0	88.0	-45.6913
122.0	89.0	-2.744
122.0	90.0	19.9524
123.0	-90.0	-12.6846
123.0	-89.0	-28.3775
123.0	-88.0	-43.8108
123.0	-87.0	-50.82
123.0	-86.0	-35.1034
123.0	-85.0	-20.3714
123.0	-84.0	-14.1243
123.0	-83.0	-50.8609
123.0	-82.0	-44.2094
123.0	-81.0	-24.4567
123.0	-80.0	-61.0053
123.0	-79.0	-31.6345
123.0	-78.0	-35.623
123.0	-77.0	-65.942
123.0	-76.0	-34.951
123.0	-75.0	-21.4059
123.0	-74.0	-71.6419
123.0	-73.0	-37.9215
123.0	-72.0	3.3432
123.0	-71.0	16.9122
123.0	-70.0	3.0288
123.0	-69.0	-7.7512
123.0	-68.0	23.6669
123.0	-67.0	10.3382
123.0	-66.0	-11.4031
123.0	-65.0	-27.3129
123.0	-64.0	-36.9708
123.0	-63.0	-19.4476
123.0	-62.0	-20.9843
123.0	-61.0	-18.0581
123.0	-60.0	-5.1722
123.0	-59.0	-9.7299
123.0	-58.0	-5.5337
123.0	-57.0	-6.9663
123.0	-56.0	-6.6763
123.0	-55.0	-1.7535
123.0	-54.0	-1.1745
123.0	-53.0	2.9081
123.0	-52.0	-4.0525
123.0	-51.0	-5.6605
123.0	-50.0	16.0201
123.0	-49.0	-11.4052
123.0	-48.0	-16.4472
123.0	-47.0	-6.1534
123.0	-46.0	-10.4639
123.0	-45.0	-18.8019
123.0	-44.0	-6.8195
123.0	-43.0	-11.6525
123.0	-42.0	-14.9747
123.0	-41.0	-21.8612
123.0	-40.0	-17.7707
123.0	-39.0	-23.9889
123.0	-38.0	-27.7661
123.0	-37.0	-33.0472
123.0	-36.0	-62.3422
123.0	-35.0	-44.9985
123.0	-34.0	-28.9088
123.0	-33.0	-9.2632
123.0	-32.0	68.1443
123.0	-31.0	-52.5633
123.0	-30.0	-26.7763
123.0	-29.0	-6.2512
123.0	-28.0	-4.1602
123.0	-27.0	-16.5083
123.0	-26.0	-9.1774
123.0	-25.0	-13.7301
123.0	-24.0	-17.8921
123.0	-23.0	23.3747
123.0	-22.0	15.2756
123.0	-21.0	-1.959
123.0	-20.0	-1.1299
123.0	-19.0	11.6006
123.0	-18.0	4.3624
123.0	-17.0	18.2556
123.0	-16.0	21.9816
123.0	-15.0	34.1388
123.0	-14.0	0.3804
123.0	-13.0	25.3271
123.0	-12.0	66.6932
123.0	-11.0	-13.5208
123.0	-10.0	-112.6895
123.0	-9.0	-118.0039
123.0	-8.0	-17.9596
123.0	-7.0	-7.3359
123.0	-6.0	4.1598
123.0	-5.0	19.6453
123.0	-4.0	58.3151
123.0	-3.0	-22.6944
123.0	-2.0	45.2965
123.0	-1.0	-11.4997
123.0	0.0	-137.7878
123.0	1.0	153.1869
123.0	2.0	-23.7424
123.0	3.0	41.8105
123.0	4.0	49.1556
123.0	5.0	39.0582
123.0	6.0	30.768
123.0	7.0	0.3054
123.0	8.0	181.7354
123.0	9.0	28.8885
123.0	10.0	159.1119
123.0	11.0	75.8435
123.0	12.0	31.4375
123.0	13.0	72.8101
123.0	14.0	66.6931
123.0	15.0	-21.3555
123.0	16.0	-68.8077
123.0	17.0	-97.9295
123.0	18.0	-46.6102
123.0	19.0	-58.6619
123.0	20.0	-40.2947
123.0	21.0	-31.5679
123.0	22.0	42.5933
123.0	23.0	-79.7616
123.0	24.0	-4.4209
123.0	25.0	15.2655
123.0	26.0	27.8349
123.0	27.0	11.1779
123.0	28.0	4.2464
123.0	29.0	9.2986
123.0	30.0	7.9393
123.0	31.0	6.5579
123.0	32.0	17.806
123.0	33.0	15.9172
123.0	34.0	14.1853
123.0	35.0	14.1581
123.0	36.0	17.6047
123.0	37.0	21.1618
123.0	38.0	11.9625
123.0	39.0	18.7577
123.0	40.0	12.9606
123.0	41.0	10.236
123.0	42.0	6.9542
123.0	43.0	6.4894
123.0	44.0	11.7389
123.0	45.0	-0.2456
123.0	46.0	13.2003
123.0	47.0	11.6779
123.0	48.0	16.0573
123.0	49.0	2.6349
123.0	50.0	30.774
123.0	51.0	-9.2804
123.0	52.0	21.5144
123.0	53.0	10.0961
123.0	54.0	5.9317
123.0	55.0	28.3627
123.0	56.0	4.5125
123.0	57.0	-18.2052
123.0	58.0	13.4186
123.0	59.0	4.4776
123.0	60.0	11.23
123.0	61.0	-9.1764
123.0	62.0	6.478
123.0	63.0	-7.4291
123.0	64.0	-23.5819
123.0	65.0	-51.9581
123.0	66.0	-19.1823
123.0	67.0	-11.4112
123.0	68.0	-41.7063
123.0	69.0	-34.378
123.0	70.0	5.4439
123.0	71.0	25.3989
123.0	72.0	13.4269
123.0	73.0	-14.3237
123.0	74.0	-14.3727
123.0	75.0	-5.5318
123.0	76.0	4.8764
123.0	77.0	38.9452
123.0	78.0	8.9208
123.0	79.0	-4.1815
123.0	80.0	-33.0952
123.0	81.0	0.7023
123.0	82.0	36.4401
123.0	83.0	12.7815
123.0	84.0	0.9653
123.0	85.0	-10.365
123.0	86.0	-5.075
123.0	87.0	-17.4071
123.0	88.0	-51.5854
123.0	89.0	-8.0517
123.0	90.0	19.9524
124.0	-90.0	-12.6846
124.0	-89.0	-28.463
124.0	-88.0	-44.2793
124.0	-87.0	-50.6874
124.0	-86.0	-35.3
124.0	-85.0	-23.2225
124.0	-84.0	-14.649
124.0	-83.0	-50.2057
124.0	-82.0	-49.1797
124.0	-81.0	-30.241
124.0	-80.0	-67.3712
124.0	-79.0	-36.0061
124.0	-78.0	-40.9973
124.0	-77.0	-67.9453
124.0	-76.0	-31.768
124.0	-75.0	-18.6364
124.0	-74.0	-72.8059
124.0	-73.0	-55.2576
124.0	-72.0	-10.4113
124.0	-71.0	19.8975
124.0	-70.0	12.499
124.0	-69.0	1.3991
124.0	-68.0	25.4301
124.0	-67.0	16.8071
124.0	-66.0	-11.7917
124.0	-65.0	-13.724
124.0	-64.0	-42.2762
124.0	-63.0	-22.6323
124.0	-62.0	-34.2171
124.0	-61.0	-14.3618
124.0	-60.0	-8.8343
124.0	-59.0	-4.2213
124.0	-58.0	-7.3085
124.0	-57.0	-2.3517
124.0	-56.0	-6.9316
124.0	-55.0	-10.6354
124.0	-54.0	-9.8155
124.0	-53.0	3.7144
124.0	-52.0	-1.1699
124.0	-51.0	2.758
124.0	-50.0	-21.3812
124.0	-49.0	6.3508
124.0	-48.0	-12.3317
124.0	-47.0	-0.2191
124.0	-46.0	-25.1687
124.0	-45.0	-17.7569
124.0	-44.0	-10.8164
124.0	-43.0	-3.5183
124.0	-42.0	-22.1081
124.0	-41.0	-17.9119
124.0	-40.0	-19.702
124.0	-39.0	-21.6993
124.0	-38.0	-19.0249
124.0	-37.0	-28.2705
124.0	-36.0	-54.2025
124.0	-35.0	-44.9322
124.0	-34.0	11.4559
124.0	-33.0	-19.9069
124.0	-32.0	-23.7628
124.0	-31.0	6.4451
124.0	-30.0	-54.1009
124.0	-29.0	-14.9676
124.0	-28.0	-16.9901
124.0	-27.0	-4.3142
124.0	-26.0	-8.8618
124.0	-25.0	-29.2637
124.0	-24.0	-26.9292
124.0	-23.0	4.4088
124.0	-22.0	-7.3358
124.0	-21.0	-9.4933
124.0	-20.0	-3.0135
124.0	-19.0	7.4674
124.0	-18.0	12.5372
124.0	-17.0	8.8056
124.0	-16.0	3.3109
124.0	-15.0	29.6919
124.0	-14.0	19.7601
124.0	-13.0	38.5866
124.0	-12.0	52.0543
124.0	-11.0	-71.3509
124.0	-10.0	21.0664
124.0	-9.0	-73.6747
124.0	-8.0	14.5795
124.0	-7.0	6.5186
124.0	-6.0	95.3811
124.0	-5.0	9.0839
124.0	-4.0	17.2211
124.0	-3.0	27.8766
124.0	-2.0	94.3737
124.0	-1.0	-130.1038
124.0	0.0	-104.7265
124.0	1.0	68.5568
124.0	2.0	6.4292
124.0	3.0	67.8678
124.0	4.0	62.6839
124.0	5.0	44.0088
124.0	6.0	8.3244
124.0	7.0	114.6968
124.0	8.0	128.0638
124.0	9.0	-87.549
124.0	10.0	46.1037
124.0	11.0	39.7938
124.0	12.0	52.2208
124.0	13.0	54.2459
124.0	14.0	116.7638
124.0	15.0	-5.1524
124.0	16.0	26.8368
124.0	17.0	7.9973
124.0	18.0	21.9938
124.0	19.0	-3.0179
124.0	20.0	11.6542
124.0	21.0	13.7472
124.0	22.0	25.3719
124.0	23.0	-99.7265
124.0	24.0	-32.518
124.0	25.0	28.184
124.0	26.0	37.109
124.0	27.0	13.7414
124.0	28.0	13.8829
124.0	29.0	-0.0219
124.0	30.0	20.5525
124.0	31.0	8.5322
124.0	32.0	7.7105
124.0	33.0	-2.6057
124.0	34.0	22.5705
124.0	35.0	18.5915
124.0	36.0	8.871
124.0	37.0	10.8461
124.0	38.0	16.2593
124.0	39.0	22.8263
124.0	40.0	9.371
124.0	41.0	34.5451
124.0	42.0	28.4477
124.0	43.0	5.0492
124.0	44.0	3.9861
124.0	45.0	1.2924
124.0	46.0	-3.2164
124.0	47.0	-2.0318
124.0	48.0	7.3219
124.0	49.0	28.9738
124.0	50.0	19.2656
124.0	51.0	1.2329
124.0	52.0	25.5495
124.0	53.0	-11.1414
124.0	54.0	-8.8278
124.0	55.0	16.018
124.0	56.0	18.6723
124.0	57.0	-32.6941
124.0	58.0	4.2414
124.0	59.0	-0.8644
124.0	60.0	3.8
124.0	61.0	0.2448
124.0	62.0	-0.8453
124.0	63.0	-12.8262
124.0	64.0	-40.6821
124.0	65.0	-66.2916
124.0	66.0	-36.8429
124.0	67.0	-45.3417
124.0	68.0	-67.0065
124.0	69.0	-64.8337
124.0	70.0	-21.4764
124.0	71.0	24.166
124.0	72.0	12.8768
124.0	73.0	-26.3398
124.0	74.0	0.4625
124.0	75.0	-16.7598
124.0	76.0	3.7316
124.0	77.0	4.8741
124.0	78.0	34.0901
124.0	79.0	-17.9456
124.0	80.0	-28.8041
124.0	81.0	16.391
124.0	82.0	19.8234
124.0	83.0	4.314
124.0	84.0	3.8978
124.0	85.0	-12.907
124.0	86.0	-5.6134
124.0	87.0	-18.4791
124.0	88.0	-55.8473
124.0	89.0	-13.5015
124.0	90.0	19.9524
125.0	-90.0	-12.6846
125.0	-89.0	-28.5395
125.0	-88.0	-44.748
125.0	-87.0	-50.4568
125.0	-86.0	-35.2286
125.0	-85.0	-26.1469
125.0	-84.0	-15.1404
125.0	-83.0	-47.7124
125.0	-82.0	-52.0554
125.0	-81.0	-34.3409
125.0	-80.0	-69.2587
125.0	-79.0	-37.1575
125.0	-78.0	-44.6899
125.0	-77.0	-63.6986
125.0	-76.0	-22.1597
125.0	-75.0	-12.279
125.0	-74.0	-67.0921
125.0	-73.0	-62.5594
125.0	-72.0	-20.1388
125.0	-71.0	22.4675
125.0	-70.0	19.7995
125.0	-69.0	9.3507
125.0	-68.0	24.7652
125.0	-67.0	11.2432
125.0	-66.0	18.417
125.0	-65.0	-35.7584
125.0	-64.0	-52.5796
125.0	-63.0	-17.2928
125.0	-62.0	-29.911
125.0	-61.0	-15.6786
125.0	-60.0	-7.207
125.0	-59.0	-6.7233
125.0	-58.0	-6.9938
125.0	-57.0	-4.768
125.0	-56.0	-6.136
125.0	-55.0	-12.7321
125.0	-54.0	-21.2816
125.0	-53.0	1.0244
125.0	-52.0	-4.3013
125.0	-51.0	7.7234
125.0	-50.0	-16.1947
125.0	-49.0	-17.0902
125.0	-48.0	-13.551
125.0	-47.0	-0.8007
125.0	-46.0	-19.0111
125.0	-45.0	-10.8062
125.0	-44.0	-15.9824
125.0	-43.0	-12.9228
125.0	-42.0	-7.1753
125.0	-41.0	-10.2967
125.0	-40.0	-17.9983
125.0	-39.0	-24.7721
125.0	-38.0	-22.0393
125.0	-37.0	-19.1965
125.0	-36.0	-49.9246
125.0	-35.0	-59.1031
125.0	-34.0	41.4487
125.0	-33.0	7.7683
125.0	-32.0	0.7364
