lon	lat	RHO_L
-99.0	-57.0	3330.3
-99.0	-55.0	3330.11
-99.0	-53.0	3326.7
-99.0	-51.0	3320.78
-99.0	-49.0	3319.74
-99.0	-47.0	3319.64
-99.0	-45.0	3321.73
-99.0	-43.0	3323.32
-99.0	-41.0	3303.78
-99.0	-39.0	3296.03
-99.0	-37.0	3293.38
-99.0	-35.0	3291.06
-99.0	-33.0	3294.38
-99.0	-31.0	3295.82
-99.0	-29.0	3295.92
-99.0	-27.0	3302.91
-99.0	-25.0	3308.64
-99.0	-23.0	3301.45
-99.0	-21.0	3302.48
-99.0	-19.0	3301.62
-99.0	-17.0	3303.34
-99.0	-15.0	3284.24
-99.0	-13.0	3289.88
-99.0	-11.0	3294.51
-99.0	-9.0	3293.0
-99.0	-7.0	3280.81
-99.0	-5.0	3275.3
-99.0	-3.0	3282.32
-99.0	-1.0	3281.95
-99.0	1.0	3277.49
-99.0	3.0	3250.96
-99.0	5.0	3281.69
-99.0	7.0	3287.79
-99.0	9.0	3290.59
-99.0	11.0	3296.82
-99.0	13.0	3291.4
-99.0	15.0	3290.93
-99.0	17.0	3234.82
-99.0	19.0	3314.9
-99.0	21.0	3255.07
-99.0	23.0	3281.21
-99.0	25.0	3298.03
-99.0	27.0	3305.3
-99.0	29.0	3288.32
-99.0	31.0	3335.56
-99.0	33.0	3344.86
-99.0	35.0	3341.52
-99.0	37.0	3338.55
-99.0	39.0	3342.26
-99.0	41.0	3343.95
-99.0	43.0	3340.01
-99.0	45.0	3347.44
-99.0	47.0	3342.32
-99.0	49.0	3343.25
-99.0	51.0	3338.6
-99.0	53.0	3367.85
-99.0	55.0	3339.34
-99.0	57.0	3344.18
-99.0	59.0	3372.04
-99.0	61.0	3374.52
-99.0	63.0	3377.92
-99.0	65.0	3353.18
-99.0	67.0	3360.73
-99.0	69.0	3361.8
-99.0	71.0	3364.73
-99.0	73.0	3340.6
-99.0	75.0	3347.14
-99.0	77.0	3347.04
-99.0	79.0	3344.67
-99.0	81.0	3350.38
-99.0	83.0	3345.72
-99.0	85.0	3350.32
-99.0	87.0	3354.28
-99.0	89.0	3352.2
-97.0	-89.0	3339.48
-97.0	-87.0	3339.48
-97.0	-85.0	3292.98
-97.0	-83.0	3262.22
-97.0	-81.0	3258.66
-97.0	-79.0	3255.46
-97.0	-77.0	3272.73
-97.0	-75.0	3251.24
-97.0	-73.0	3253.78
-97.0	-71.0	3271.16
-97.0	-69.0	3342.72
-97.0	-67.0	3343.87
-97.0	-65.0	3344.98
-97.0	-63.0	3344.51
-97.0	-61.0	3335.24
-97.0	-59.0	3336.33
-97.0	-57.0	3331.75
-97.0	-55.0	3330.78
-97.0	-53.0	3329.12
-97.0	-51.0	3323.65
-97.0	-49.0	3323.02
-97.0	-47.0	3323.42
-97.0	-45.0	3322.6
-97.0	-43.0	3314.67
-97.0	-41.0	3304.57
-97.0	-39.0	3295.59
-97.0	-37.0	3291.13
-97.0	-35.0	3295.27
-97.0	-33.0	3296.44
-97.0	-31.0	3296.66
-97.0	-29.0	3297.21
-97.0	-27.0	3306.42
-97.0	-25.0	3309.91
-97.0	-23.0	3304.41
-97.0	-21.0	3305.12
-97.0	-19.0	3304.84
-97.0	-17.0	3306.11
-97.0	-15.0	3309.52
-97.0	-13.0	3274.62
-97.0	-11.0	3283.5
-97.0	-9.0	3284.69
-97.0	-7.0	3284.73
-97.0	-5.0	3286.36
-97.0	-3.0	3291.45
-97.0	-1.0	3292.43
-97.0	1.0	3290.58
-97.0	3.0	3276.1
-97.0	5.0	3291.0
-97.0	7.0	3295.85
-97.0	9.0	3296.11
-97.0	11.0	3300.37
-97.0	13.0	3311.8
-97.0	15.0	3296.37
-97.0	17.0	3255.8
-97.0	19.0	3260.47
-97.0	21.0	3262.83
-97.0	23.0	3343.49
-97.0	25.0	3347.72
-97.0	27.0	3352.11
-97.0	29.0	3283.36
-97.0	31.0	3331.11
-97.0	33.0	3284.4
-97.0	35.0	3332.67
-97.0	37.0	3342.69
-97.0	39.0	3359.09
-97.0	41.0	3347.65
-97.0	43.0	3335.35
-97.0	45.0	3339.83
-97.0	47.0	3347.18
-97.0	49.0	3341.09
-97.0	51.0	3346.59
-97.0	53.0	3366.35
-97.0	55.0	3351.8
-97.0	57.0	3352.36
-97.0	59.0	3364.59
-97.0	61.0	3356.35
-97.0	63.0	3373.2
-97.0	65.0	3355.73
-97.0	67.0	3368.22
-97.0	69.0	3373.65
-97.0	71.0	3360.84
-97.0	73.0	3350.0
-97.0	75.0	3353.56
-97.0	77.0	3354.65
-97.0	79.0	3341.1
-97.0	81.0	3344.53
-97.0	83.0	3345.69
-97.0	85.0	3350.22
-97.0	87.0	3354.25
-97.0	89.0	3352.14
-95.0	-89.0	3339.7
-95.0	-87.0	3339.7
-95.0	-85.0	3298.11
-95.0	-83.0	3259.47
-95.0	-81.0	3259.32
-95.0	-79.0	3262.01
-95.0	-77.0	3272.88
-95.0	-75.0	3257.17
-95.0	-73.0	3259.97
-95.0	-71.0	3262.08
-95.0	-69.0	3344.3
-95.0	-67.0	3344.49
-95.0	-65.0	3346.41
-95.0	-63.0	3345.29
-95.0	-61.0	3339.98
-95.0	-59.0	3338.59
-95.0	-57.0	3331.7
-95.0	-55.0	3328.41
-95.0	-53.0	3329.56
-95.0	-51.0	3324.3
-95.0	-49.0	3323.41
-95.0	-47.0	3319.63
-95.0	-45.0	3314.69
-95.0	-43.0	3305.65
-95.0	-41.0	3296.52
-95.0	-39.0	3287.06
-95.0	-37.0	3255.34
-95.0	-35.0	3296.79
-95.0	-33.0	3297.65
-95.0	-31.0	3297.73
-95.0	-29.0	3301.96
-95.0	-27.0	3309.64
-95.0	-25.0	3310.79
-95.0	-23.0	3308.04
-95.0	-21.0	3308.61
-95.0	-19.0	3309.93
-95.0	-17.0	3309.57
-95.0	-15.0	3310.6
-95.0	-13.0	3290.77
-95.0	-11.0	3281.79
-95.0	-9.0	3277.76
-95.0	-7.0	3292.41
-95.0	-5.0	3294.59
-95.0	-3.0	3295.62
-95.0	-1.0	3294.53
-95.0	1.0	3288.71
-95.0	3.0	3239.37
-95.0	5.0	3293.35
-95.0	7.0	3296.61
-95.0	9.0	3297.14
-95.0	11.0	3305.23
-95.0	13.0	3314.03
-95.0	15.0	3309.75
-95.0	17.0	3258.16
-95.0	19.0	3259.64
-95.0	21.0	3312.84
-95.0	23.0	3344.26
-95.0	25.0	3345.35
-95.0	27.0	3356.45
-95.0	29.0	3323.72
-95.0	31.0	3288.47
-95.0	33.0	3302.29
-95.0	35.0	3297.93
-95.0	37.0	3344.87
-95.0	39.0	3355.44
-95.0	41.0	3348.17
-95.0	43.0	3345.84
-95.0	45.0	3347.95
-95.0	47.0	3342.17
-95.0	49.0	3341.24
-95.0	51.0	3349.97
-95.0	53.0	3381.67
-95.0	55.0	3373.72
-95.0	57.0	3366.63
-95.0	59.0	3363.96
-95.0	61.0	3352.45
-95.0	63.0	3357.93
-95.0	65.0	3345.16
-95.0	67.0	3369.25
-95.0	69.0	3372.94
-95.0	71.0	3343.95
-95.0	73.0	3339.22
-95.0	75.0	3352.39
-95.0	77.0	3339.99
-95.0	79.0	3345.92
-95.0	81.0	3347.13
-95.0	83.0	3346.1
-95.0	85.0	3350.19
-95.0	87.0	3354.81
-95.0	89.0	3352.89
-93.0	-89.0	3340.09
-93.0	-87.0	3340.09
-93.0	-85.0	3303.16
-93.0	-83.0	3258.9
-93.0	-81.0	3259.81
-93.0	-79.0	3268.26
-93.0	-77.0	3276.64
-93.0	-75.0	3272.75
-93.0	-73.0	3266.61
-93.0	-71.0	3265.99
-93.0	-69.0	3346.24
-93.0	-67.0	3344.15
-93.0	-65.0	3347.1
-93.0	-63.0	3345.1
-93.0	-61.0	3342.31
-93.0	-59.0	3339.32
-93.0	-57.0	3332.15
-93.0	-55.0	3329.67
-93.0	-53.0	3330.66
-93.0	-51.0	3325.96
-93.0	-49.0	3322.53
-93.0	-47.0	3318.48
-93.0	-45.0	3310.79
-93.0	-43.0	3301.66
-93.0	-41.0	3294.35
-93.0	-39.0	3261.04
-93.0	-37.0	3262.39
-93.0	-35.0	3305.36
-93.0	-33.0	3306.07
-93.0	-31.0	3307.18
-93.0	-29.0	3309.85
-93.0	-27.0	3311.62
-93.0	-25.0	3312.92
-93.0	-23.0	3310.49
-93.0	-21.0	3311.68
-93.0	-19.0	3311.37
-93.0	-17.0	3311.27
-93.0	-15.0	3314.71
-93.0	-13.0	3293.82
-93.0	-11.0	3292.19
-93.0	-9.0	3294.49
-93.0	-7.0	3296.56
-93.0	-5.0	3297.05
-93.0	-3.0	3297.64
-93.0	-1.0	3297.8
-93.0	1.0	3291.53
-93.0	3.0	3247.58
-93.0	5.0	3294.78
-93.0	7.0	3297.51
-93.0	9.0	3307.47
-93.0	11.0	3311.32
-93.0	13.0	3314.25
-93.0	15.0	3255.68
-93.0	17.0	3282.03
-93.0	19.0	3353.33
-93.0	21.0	3330.24
-93.0	23.0	3329.41
-93.0	25.0	3345.06
-93.0	27.0	3343.29
-93.0	29.0	3351.72
-93.0	31.0	3290.32
-93.0	33.0	3293.4
-93.0	35.0	3340.0
-93.0	37.0	3335.91
-93.0	39.0	3344.98
-93.0	41.0	3352.79
-93.0	43.0	3345.44
-93.0	45.0	3337.09
-93.0	47.0	3357.22
-93.0	49.0	3367.05
-93.0	51.0	3345.91
-93.0	53.0	3379.55
-93.0	55.0	3372.22
-93.0	57.0	3366.19
-93.0	59.0	3360.3
-93.0	61.0	3361.13
-93.0	63.0	3341.98
-93.0	65.0	3346.44
-93.0	67.0	3356.18
-93.0	69.0	3373.81
-93.0	71.0	3345.57
-93.0	73.0	3349.12
-93.0	75.0	3355.6
-93.0	77.0	3347.0
-93.0	79.0	3352.92
-93.0	81.0	3349.85
-93.0	83.0	3346.45
-93.0	85.0	3350.0
-93.0	87.0	3354.79
-93.0	89.0	3352.85
-91.0	-89.0	3340.75
-91.0	-87.0	3340.75
-91.0	-85.0	3308.44
-91.0	-83.0	3261.53
-91.0	-81.0	3261.67
-91.0	-79.0	3275.45
-91.0	-77.0	3278.56
-91.0	-75.0	3273.18
-91.0	-73.0	3264.17
-91.0	-71.0	3274.03
-91.0	-69.0	3345.75
-91.0	-67.0	3338.12
-91.0	-65.0	3342.58
-91.0	-63.0	3344.25
-91.0	-61.0	3341.83
-91.0	-59.0	3339.53
-91.0	-57.0	3334.42
-91.0	-55.0	3333.54
-91.0	-53.0	3330.18
-91.0	-51.0	3328.2
-91.0	-49.0	3321.93
-91.0	-47.0	3317.99
-91.0	-45.0	3310.25
-91.0	-43.0	3296.73
-91.0	-41.0	3293.43
-91.0	-39.0	3258.43
-91.0	-37.0	3279.23
-91.0	-35.0	3308.18
-91.0	-33.0	3310.24
-91.0	-31.0	3315.03
-91.0	-29.0	3314.89
-91.0	-27.0	3313.12
-91.0	-25.0	3318.21
-91.0	-23.0	3311.11
-91.0	-21.0	3313.91
-91.0	-19.0	3314.1
-91.0	-17.0	3313.36
-91.0	-15.0	3317.14
-91.0	-13.0	3305.17
-91.0	-11.0	3303.02
-91.0	-9.0	3305.02
-91.0	-7.0	3305.13
-91.0	-5.0	3305.81
-91.0	-3.0	3309.01
-91.0	-1.0	3293.79
-91.0	1.0	3270.72
-91.0	3.0	3274.6
-91.0	5.0	3294.76
-91.0	7.0	3304.61
-91.0	9.0	3310.66
-91.0	11.0	3314.82
-91.0	13.0	3318.75
-91.0	15.0	3311.0
-91.0	17.0	3326.17
-91.0	19.0	3349.24
-91.0	21.0	3347.55
-91.0	23.0	3341.73
-91.0	25.0	3319.29
-91.0	27.0	3347.94
-91.0	29.0	3346.8
-91.0	31.0	3297.81
-91.0	33.0	3276.31
-91.0	35.0	3350.86
-91.0	37.0	3349.48
-91.0	39.0	3340.68
-91.0	41.0	3340.58
-91.0	43.0	3357.38
-91.0	45.0	3340.83
-91.0	47.0	3350.81
-91.0	49.0	3368.05
-91.0	51.0	3355.61
-91.0	53.0	3378.17
-91.0	55.0	3364.4
-91.0	57.0	3366.85
-91.0	59.0	3374.78
-91.0	61.0	3367.8
-91.0	63.0	3355.21
-91.0	65.0	3355.99
-91.0	67.0	3351.03
-91.0	69.0	3381.62
-91.0	71.0	3362.7
-91.0	73.0	3355.35
-91.0	75.0	3349.27
-91.0	77.0	3339.42
-91.0	79.0	3351.08
-91.0	81.0	3342.17
-91.0	83.0	3357.95
-91.0	85.0	3349.82
-91.0	87.0	3354.8
-91.0	89.0	3352.87
-89.0	-89.0	3341.81
-89.0	-87.0	3341.81
-89.0	-85.0	3314.5
-89.0	-83.0	3266.45
-89.0	-81.0	3263.27
-89.0	-79.0	3281.29
-89.0	-77.0	3277.53
-89.0	-75.0	3270.53
-89.0	-73.0	3262.47
-89.0	-71.0	3265.58
-89.0	-69.0	3324.47
-89.0	-67.0	3327.53
-89.0	-65.0	3332.62
-89.0	-63.0	3331.01
-89.0	-61.0	3342.1
-89.0	-59.0	3340.11
-89.0	-57.0	3335.1
-89.0	-55.0	3335.24
-89.0	-53.0	3327.09
-89.0	-51.0	3324.53
-89.0	-49.0	3319.03
-89.0	-47.0	3314.34
-89.0	-45.0	3305.04
-89.0	-43.0	3294.37
-89.0	-41.0	3262.19
-89.0	-39.0	3283.52
-89.0	-37.0	3297.16
-89.0	-35.0	3310.19
-89.0	-33.0	3314.32
-89.0	-31.0	3315.74
-89.0	-29.0	3317.65
-89.0	-27.0	3317.51
-89.0	-25.0	3321.34
-89.0	-23.0	3312.7
-89.0	-21.0	3315.36
-89.0	-19.0	3317.07
-89.0	-17.0	3316.68
-89.0	-15.0	3318.84
-89.0	-13.0	3314.93
-89.0	-11.0	3311.79
-89.0	-9.0	3311.26
-89.0	-7.0	3312.05
-89.0	-5.0	3313.1
-89.0	-3.0	3312.85
-89.0	-1.0	3293.01
-89.0	1.0	3265.37
-89.0	3.0	3273.92
-89.0	5.0	3291.72
-89.0	7.0	3305.23
-89.0	9.0	3314.6
-89.0	11.0	3311.21
-89.0	13.0	3350.03
-89.0	15.0	3318.07
-89.0	17.0	3348.54
-89.0	19.0	3342.04
-89.0	21.0	3352.06
-89.0	23.0	3340.16
-89.0	25.0	3329.17
-89.0	27.0	3348.11
-89.0	29.0	3351.72
-89.0	31.0	3344.16
-89.0	33.0	3348.64
-89.0	35.0	3345.05
-89.0	37.0	3345.47
-89.0	39.0	3349.99
-89.0	41.0	3342.8
-89.0	43.0	3353.71
-89.0	45.0	3365.16
-89.0	47.0	3352.52
-89.0	49.0	3344.88
-89.0	51.0	3374.2
-89.0	53.0	3371.2
-89.0	55.0	3364.98
-89.0	57.0	3362.84
-89.0	59.0	3365.6
-89.0	61.0	3364.2
-89.0	63.0	3363.05
-89.0	65.0	3356.15
-89.0	67.0	3352.96
-89.0	69.0	3376.11
-89.0	71.0	3364.79
-89.0	73.0	3349.45
-89.0	75.0	3351.37
-89.0	77.0	3351.29
-89.0	79.0	3349.29
-89.0	81.0	3345.45
-89.0	83.0	3359.93
-89.0	85.0	3349.75
-89.0	87.0	3354.73
-89.0	89.0	3352.78
-87.0	-89.0	3344.56
-87.0	-87.0	3344.56
-87.0	-85.0	3320.13
-87.0	-83.0	3271.51
-87.0	-81.0	3264.6
-87.0	-79.0	3284.58
-87.0	-77.0	3271.91
-87.0	-75.0	3255.98
-87.0	-73.0	3260.22
-87.0	-71.0	3245.61
-87.0	-69.0	3316.79
-87.0	-67.0	3324.54
-87.0	-65.0	3330.28
-87.0	-63.0	3329.89
-87.0	-61.0	3343.31
-87.0	-59.0	3340.35
-87.0	-57.0	3335.87
-87.0	-55.0	3331.04
-87.0	-53.0	3324.78
-87.0	-51.0	3321.24
-87.0	-49.0	3315.32
-87.0	-47.0	3307.47
-87.0	-45.0	3295.38
-87.0	-43.0	3292.89
-87.0	-41.0	3266.3
-87.0	-39.0	3292.94
-87.0	-37.0	3308.76
-87.0	-35.0	3314.41
-87.0	-33.0	3316.72
-87.0	-31.0	3318.03
-87.0	-29.0	3318.1
-87.0	-27.0	3322.45
-87.0	-25.0	3324.49
-87.0	-23.0	3320.67
-87.0	-21.0	3316.72
-87.0	-19.0	3318.73
-87.0	-17.0	3319.75
-87.0	-15.0	3319.78
-87.0	-13.0	3323.96
-87.0	-11.0	3314.53
-87.0	-9.0	3314.28
-87.0	-7.0	3315.7
-87.0	-5.0	3317.83
-87.0	-3.0	3316.98
-87.0	-1.0	3292.51
-87.0	1.0	3269.46
-87.0	3.0	3270.21
-87.0	5.0	3288.91
-87.0	7.0	3294.98
-87.0	9.0	3305.22
-87.0	11.0	3306.1
-87.0	13.0	3330.35
-87.0	15.0	3308.38
-87.0	17.0	3320.88
-87.0	19.0	3347.33
-87.0	21.0	3322.2
-87.0	23.0	3350.72
-87.0	25.0	3341.48
-87.0	27.0	3347.61
-87.0	29.0	3332.86
-87.0	31.0	3345.58
-87.0	33.0	3350.0
-87.0	35.0	3353.17
-87.0	37.0	3343.65
-87.0	39.0	3342.52
-87.0	41.0	3342.12
-87.0	43.0	3345.8
-87.0	45.0	3350.3
-87.0	47.0	3340.27
-87.0	49.0	3344.38
-87.0	51.0	3369.26
-87.0	53.0	3372.37
-87.0	55.0	3356.04
-87.0	57.0	3359.03
-87.0	59.0	3373.46
-87.0	61.0	3365.51
-87.0	63.0	3366.17
-87.0	65.0	3359.18
-87.0	67.0	3365.19
-87.0	69.0	3375.91
-87.0	71.0	3348.96
-87.0	73.0	3346.96
-87.0	75.0	3351.92
-87.0	77.0	3339.0
-87.0	79.0	3353.52
-87.0	81.0	3349.02
-87.0	83.0	3361.87
-87.0	85.0	3349.86
-87.0	87.0	3354.79
-87.0	89.0	3352.91
-85.0	-89.0	3350.85
-85.0	-87.0	3350.85
-85.0	-85.0	3323.22
-85.0	-83.0	3276.34
-85.0	-81.0	3266.05
-85.0	-79.0	3288.23
-85.0	-77.0	3269.48
-85.0	-75.0	3248.2
-85.0	-73.0	3256.97
-85.0	-71.0	3246.95
-85.0	-69.0	3311.05
-85.0	-67.0	3321.34
-85.0	-65.0	3327.89
-85.0	-63.0	3329.81
-85.0	-61.0	3332.13
-85.0	-59.0	3341.26
-85.0	-57.0	3333.73
-85.0	-55.0	3328.67
-85.0	-53.0	3322.61
-85.0	-51.0	3320.47
-85.0	-49.0	3313.52
-85.0	-47.0	3304.35
-85.0	-45.0	3296.08
-85.0	-43.0	3277.21
-85.0	-41.0	3237.81
-85.0	-39.0	3305.79
-85.0	-37.0	3310.82
-85.0	-35.0	3316.14
-85.0	-33.0	3319.26
-85.0	-31.0	3319.8
-85.0	-29.0	3320.77
-85.0	-27.0	3321.8
-85.0	-25.0	3328.96
-85.0	-23.0	3326.23
-85.0	-21.0	3316.94
-85.0	-19.0	3318.73
-85.0	-17.0	3320.61
-85.0	-15.0	3320.16
-85.0	-13.0	3323.13
-85.0	-11.0	3324.66
-85.0	-9.0	3316.69
-85.0	-7.0	3318.29
-85.0	-5.0	3321.09
-85.0	-3.0	3321.18
-85.0	-1.0	3299.17
-85.0	1.0	3287.9
-85.0	3.0	3246.22
-85.0	5.0	3276.16
-85.0	7.0	3288.77
-85.0	9.0	3292.46
-85.0	11.0	3353.9
-85.0	13.0	3326.73
-85.0	15.0	3318.31
-85.0	17.0	3346.91
-85.0	19.0	3349.93
-85.0	21.0	3347.67
-85.0	23.0	3295.31
-85.0	25.0	3342.39
-85.0	27.0	3340.73
-85.0	29.0	3319.27
-85.0	31.0	3351.54
-85.0	33.0	3340.27
-85.0	35.0	3338.53
-85.0	37.0	3345.71
-85.0	39.0	3349.44
-85.0	41.0	3347.15
-85.0	43.0	3337.87
-85.0	45.0	3350.46
-85.0	47.0	3344.06
-85.0	49.0	3344.44
-85.0	51.0	3355.06
-85.0	53.0	3370.75
-85.0	55.0	3342.35
-85.0	57.0	3353.63
-85.0	59.0	3368.18
-85.0	61.0	3371.12
-85.0	63.0	3355.54
-85.0	65.0	3359.45
-85.0	67.0	3375.0
-85.0	69.0	3375.07
-85.0	71.0	3338.6
-85.0	73.0	3349.95
-85.0	75.0	3346.99
-85.0	77.0	3353.47
-85.0	79.0	3349.69
-85.0	81.0	3352.86
-85.0	83.0	3364.27
-85.0	85.0	3349.89
-85.0	87.0	3354.67
-85.0	89.0	3352.79
-83.0	-89.0	3352.59
-83.0	-87.0	3352.59
-83.0	-85.0	3331.58
-83.0	-83.0	3279.97
-83.0	-81.0	3268.31
-83.0	-79.0	3291.79
-83.0	-77.0	3266.7
-83.0	-75.0	3254.67
-83.0	-73.0	3259.99
-83.0	-71.0	3248.56
-83.0	-69.0	3310.84
-83.0	-67.0	3317.65
-83.0	-65.0	3326.25
-83.0	-63.0	3331.0
-83.0	-61.0	3331.41
-83.0	-59.0	3339.9
-83.0	-57.0	3331.15
-83.0	-55.0	3325.08
-83.0	-53.0	3322.86
-83.0	-51.0	3315.95
-83.0	-49.0	3309.05
-83.0	-47.0	3296.04
-83.0	-45.0	3292.97
-83.0	-43.0	3239.35
-83.0	-41.0	3263.97
-83.0	-39.0	3311.91
-83.0	-37.0	3315.57
-83.0	-35.0	3318.15
-83.0	-33.0	3322.32
-83.0	-31.0	3322.08
-83.0	-29.0	3322.46
-83.0	-27.0	3324.64
-83.0	-25.0	3330.76
-83.0	-23.0	3333.5
-83.0	-21.0	3326.07
-83.0	-19.0	3320.33
-83.0	-17.0	3321.29
-83.0	-15.0	3321.04
-83.0	-13.0	3323.12
-83.0	-11.0	3327.7
-83.0	-9.0	3320.68
-83.0	-7.0	3322.49
-83.0	-5.0	3324.87
-83.0	-3.0	3325.53
-83.0	-1.0	3303.0
-83.0	1.0	3289.55
-83.0	3.0	3288.23
-83.0	5.0	3256.1
-83.0	7.0	3256.74
-83.0	9.0	3309.3
-83.0	11.0	3296.18
-83.0	13.0	3296.06
-83.0	15.0	3292.6
-83.0	17.0	3340.22
-83.0	19.0	3287.19
-83.0	21.0	3350.83
-83.0	23.0	3354.37
-83.0	25.0	3346.92
-83.0	27.0	3336.03
-83.0	29.0	3315.97
-83.0	31.0	3273.43
-83.0	33.0	3350.51
-83.0	35.0	3343.76
-83.0	37.0	3336.64
-83.0	39.0	3349.83
-83.0	41.0	3338.69
-83.0	43.0	3347.65
-83.0	45.0	3347.8
-83.0	47.0	3346.97
-83.0	49.0	3338.95
-83.0	51.0	3365.34
-83.0	53.0	3374.36
-83.0	55.0	3350.39
-83.0	57.0	3365.86
-83.0	59.0	3363.22
-83.0	61.0	3372.79
-83.0	63.0	3359.36
-83.0	65.0	3355.26
-83.0	67.0	3376.89
-83.0	69.0	3368.64
-83.0	71.0	3350.53
-83.0	73.0	3347.92
-83.0	75.0	3348.79
-83.0	77.0	3345.37
-83.0	79.0	3344.96
-83.0	81.0	3348.03
-83.0	83.0	3357.16
-83.0	85.0	3349.82
-83.0	87.0	3354.53
-83.0	89.0	3352.66
-81.0	-89.0	3354.46
-81.0	-87.0	3354.46
-81.0	-85.0	3339.94
-81.0	-83.0	3282.96
-81.0	-81.0	3275.17
-81.0	-79.0	3290.64
-81.0	-77.0	3276.62
-81.0	-75.0	3259.21
-81.0	-73.0	3263.96
-81.0	-71.0	3247.0
-81.0	-69.0	3302.39
-81.0	-67.0	3313.77
-81.0	-65.0	3325.62
-81.0	-63.0	3331.87
-81.0	-61.0	3331.37
-81.0	-59.0	3332.9
-81.0	-57.0	3329.68
-81.0	-55.0	3323.57
-81.0	-53.0	3317.69
-81.0	-51.0	3311.35
-81.0	-49.0	3305.79
-81.0	-47.0	3296.23
-81.0	-45.0	3280.43
-81.0	-43.0	3269.88
-81.0	-41.0	3282.05
-81.0	-39.0	3313.45
-81.0	-37.0	3317.42
-81.0	-35.0	3320.7
-81.0	-33.0	3325.32
-81.0	-31.0	3324.15
-81.0	-29.0	3324.89
-81.0	-27.0	3328.37
-81.0	-25.0	3328.16
-81.0	-23.0	3330.59
-81.0	-21.0	3339.02
-81.0	-19.0	3327.49
-81.0	-17.0	3328.28
-81.0	-15.0	3324.91
-81.0	-13.0	3327.91
-81.0	-11.0	3330.57
-81.0	-9.0	3321.18
-81.0	-7.0	3333.78
-81.0	-5.0	3347.81
-81.0	-3.0	3266.99
-81.0	-1.0	3270.15
-81.0	1.0	3307.06
-81.0	3.0	3287.59
-81.0	5.0	3283.45
-81.0	7.0	3280.21
-81.0	9.0	3291.09
-81.0	11.0	3310.28
-81.0	13.0	3274.8
-81.0	15.0	3281.77
-81.0	17.0	3303.64
-81.0	19.0	3315.32
-81.0	21.0	3349.87
-81.0	23.0	3340.44
-81.0	25.0	3347.93
-81.0	27.0	3348.61
-81.0	29.0	3349.04
-81.0	31.0	3341.19
-81.0	33.0	3316.14
-81.0	35.0	3342.43
-81.0	37.0	3350.23
-81.0	39.0	3342.39
-81.0	41.0	3341.07
-81.0	43.0	3336.86
-81.0	45.0	3347.86
-81.0	47.0	3354.65
-81.0	49.0	3348.43
-81.0	51.0	3350.29
-81.0	53.0	3360.64
-81.0	55.0	3339.83
-81.0	57.0	3369.84
-81.0	59.0	3374.55
-81.0	61.0	3373.4
-81.0	63.0	3355.47
-81.0	65.0	3360.25
-81.0	67.0	3371.48
-81.0	69.0	3364.3
-81.0	71.0	3348.07
-81.0	73.0	3347.07
-81.0	75.0	3351.5
-81.0	77.0	3352.9
-81.0	79.0	3349.29
-81.0	81.0	3345.41
-81.0	83.0	3367.14
-81.0	85.0	3349.65
-81.0	87.0	3354.35
-81.0	89.0	3352.48
-79.0	-89.0	3346.5
-79.0	-87.0	3346.5
-79.0	-85.0	3348.79
-79.0	-83.0	3285.38
-79.0	-81.0	3282.55
-79.0	-79.0	3289.96
-79.0	-77.0	3289.34
-79.0	-75.0	3263.83
-79.0	-73.0	3263.15
-79.0	-71.0	3246.84
-79.0	-69.0	3246.98
-79.0	-67.0	3310.07
-79.0	-65.0	3324.42
-79.0	-63.0	3330.74
-79.0	-61.0	3331.29
-79.0	-59.0	3330.61
-79.0	-57.0	3327.83
-79.0	-55.0	3319.48
-79.0	-53.0	3310.48
-79.0	-51.0	3306.04
-79.0	-49.0	3296.05
-79.0	-47.0	3295.02
-79.0	-45.0	3252.0
-79.0	-43.0	3283.05
-79.0	-41.0	3295.22
-79.0	-39.0	3313.6
-79.0	-37.0	3318.57
-79.0	-35.0	3321.43
-79.0	-33.0	3326.64
-79.0	-31.0	3326.59
-79.0	-29.0	3329.48
-79.0	-27.0	3332.52
-79.0	-25.0	3328.06
-79.0	-23.0	3324.81
-79.0	-21.0	3330.03
-79.0	-19.0	3335.28
-79.0	-17.0	3336.82
-79.0	-15.0	3332.54
-79.0	-13.0	3330.45
-79.0	-11.0	3303.97
-79.0	-9.0	3244.61
-79.0	-7.0	3351.36
-79.0	-5.0	3333.53
-79.0	-3.0	3347.73
-79.0	-1.0	3307.51
-79.0	1.0	3289.11
-79.0	3.0	3333.46
-79.0	5.0	3307.6
-79.0	7.0	3328.95
-79.0	9.0	3347.34
-79.0	11.0	3340.62
-79.0	13.0	3346.74
-79.0	15.0	3313.44
-79.0	17.0	3333.92
-79.0	19.0	3331.26
-79.0	21.0	3304.08
-79.0	23.0	3349.95
-79.0	25.0	3352.98
-79.0	27.0	3353.95
-79.0	29.0	3336.98
-79.0	31.0	3350.83
-79.0	33.0	3322.37
-79.0	35.0	3343.97
-79.0	37.0	3303.21
-79.0	39.0	3343.31
-79.0	41.0	3351.81
-79.0	43.0	3338.6
-79.0	45.0	3349.47
-79.0	47.0	3349.62
-79.0	49.0	3350.56
-79.0	51.0	3341.88
-79.0	53.0	3364.17
-79.0	55.0	3362.44
-79.0	57.0	3365.42
-79.0	59.0	3365.77
-79.0	61.0	3370.19
-79.0	63.0	3358.66
-79.0	65.0	3357.63
-79.0	67.0	3365.65
-79.0	69.0	3358.82
-79.0	71.0	3353.64
-79.0	73.0	3351.83
-79.0	75.0	3358.2
-79.0	77.0	3350.49
-79.0	79.0	3344.3
-79.0	81.0	3346.66
-79.0	83.0	3365.79
-79.0	85.0	3349.58
-79.0	87.0	3354.07
-79.0	89.0	3352.21
-77.0	-89.0	3348.87
-77.0	-87.0	3348.87
-77.0	-85.0	3347.97
-77.0	-83.0	3289.32
-77.0	-81.0	3290.1
-77.0	-79.0	3294.1
-77.0	-77.0	3302.89
-77.0	-75.0	3270.52
-77.0	-73.0	3252.26
-77.0	-71.0	3246.03
-77.0	-69.0	3244.1
-77.0	-67.0	3311.74
-77.0	-65.0	3320.99
-77.0	-63.0	3327.93
-77.0	-61.0	3328.15
-77.0	-59.0	3328.96
-77.0	-57.0	3326.59
-77.0	-55.0	3316.63
-77.0	-53.0	3305.08
-77.0	-51.0	3294.29
-77.0	-49.0	3290.15
-77.0	-47.0	3290.3
-77.0	-45.0	3249.49
-77.0	-43.0	3292.62
-77.0	-41.0	3308.81
-77.0	-39.0	3317.9
-77.0	-37.0	3321.19
-77.0	-35.0	3322.39
-77.0	-33.0	3325.23
-77.0	-31.0	3328.32
-77.0	-29.0	3330.43
-77.0	-27.0	3334.41
-77.0	-25.0	3331.91
-77.0	-23.0	3328.43
-77.0	-21.0	3328.1
-77.0	-19.0	3332.35
-77.0	-17.0	3340.13
-77.0	-15.0	3337.73
-77.0	-13.0	3243.14
-77.0	-11.0	3343.12
-77.0	-9.0	3333.43
-77.0	-7.0	3344.0
-77.0	-5.0	3345.53
-77.0	-3.0	3344.78
-77.0	-1.0	3294.38
-77.0	1.0	3277.31
-77.0	3.0	3326.39
-77.0	5.0	3337.53
-77.0	7.0	3351.29
-77.0	9.0	3353.93
-77.0	11.0	3344.29
-77.0	13.0	3338.28
-77.0	15.0	3344.99
-77.0	17.0	3348.74
-77.0	19.0	3325.61
-77.0	21.0	3347.81
-77.0	23.0	3343.78
-77.0	25.0	3340.89
-77.0	27.0	3342.0
-77.0	29.0	3348.37
-77.0	31.0	3349.46
-77.0	33.0	3328.84
-77.0	35.0	3341.49
-77.0	37.0	3347.66
-77.0	39.0	3340.0
-77.0	41.0	3352.72
-77.0	43.0	3342.69
-77.0	45.0	3341.63
-77.0	47.0	3345.81
-77.0	49.0	3350.12
-77.0	51.0	3341.56
-77.0	53.0	3371.55
-77.0	55.0	3370.24
-77.0	57.0	3359.44
-77.0	59.0	3365.71
-77.0	61.0	3365.33
-77.0	63.0	3360.52
-77.0	65.0	3347.68
-77.0	67.0	3366.75
-77.0	69.0	3351.77
-77.0	71.0	3336.26
-77.0	73.0	3344.89
-77.0	75.0	3348.46
-77.0	77.0	3351.49
-77.0	79.0	3345.88
-77.0	81.0	3349.29
-77.0	83.0	3359.79
-77.0	85.0	3349.66
-77.0	87.0	3354.0
-77.0	89.0	3352.19
-75.0	-89.0	3351.42
-75.0	-87.0	3351.42
-75.0	-85.0	3347.39
-75.0	-83.0	3292.87
-75.0	-81.0	3292.56
-75.0	-79.0	3323.41
-75.0	-77.0	3336.01
-75.0	-75.0	3271.41
-75.0	-73.0	3248.35
-75.0	-71.0	3249.06
-75.0	-69.0	3248.44
-75.0	-67.0	3307.22
-75.0	-65.0	3315.69
-75.0	-63.0	3323.04
-75.0	-61.0	3326.54
-75.0	-59.0	3327.96
-75.0	-57.0	3323.02
-75.0	-55.0	3309.91
-75.0	-53.0	3281.31
-75.0	-51.0	3269.03
-75.0	-49.0	3246.3
-75.0	-47.0	3254.25
-75.0	-45.0	3278.29
-75.0	-43.0	3283.42
-75.0	-41.0	3309.78
-75.0	-39.0	3309.39
-75.0	-37.0	3306.29
-75.0	-35.0	3324.39
-75.0	-33.0	3327.2
-75.0	-31.0	3326.96
-75.0	-29.0	3330.9
-75.0	-27.0	3334.65
-75.0	-25.0	3337.38
-75.0	-23.0	3333.02
-75.0	-21.0	3329.18
-75.0	-19.0	3332.66
-75.0	-17.0	3333.3
-75.0	-15.0	3255.05
-75.0	-13.0	3337.61
-75.0	-11.0	3338.75
-75.0	-9.0	3343.29
-75.0	-7.0	3341.39
-75.0	-5.0	3355.42
-75.0	-3.0	3347.88
-75.0	-1.0	3351.65
-75.0	1.0	3289.55
-75.0	3.0	3345.01
-75.0	5.0	3348.9
-75.0	7.0	3347.82
-75.0	9.0	3305.31
-75.0	11.0	3358.04
-75.0	13.0	3340.25
-75.0	15.0	3344.63
-75.0	17.0	3350.63
-75.0	19.0	3312.16
-75.0	21.0	3287.72
-75.0	23.0	3355.41
-75.0	25.0	3350.82
-75.0	27.0	3350.35
-75.0	29.0	3350.26
-75.0	31.0	3350.51
-75.0	33.0	3348.1
-75.0	35.0	3347.65
-75.0	37.0	3348.07
-75.0	39.0	3349.03
-75.0	41.0	3327.63
-75.0	43.0	3314.24
-75.0	45.0	3342.26
-75.0	47.0	3341.2
-75.0	49.0	3343.9
-75.0	51.0	3346.9
-75.0	53.0	3360.6
-75.0	55.0	3361.67
-75.0	57.0	3356.33
-75.0	59.0	3363.3
-75.0	61.0	3361.26
-75.0	63.0	3353.48
-75.0	65.0	3341.16
-75.0	67.0	3342.27
-75.0	69.0	3348.64
-75.0	71.0	3324.47
-75.0	73.0	3310.74
-75.0	75.0	3334.97
-75.0	77.0	3334.33
-75.0	79.0	3349.89
-75.0	81.0	3353.16
-75.0	83.0	3354.45
-75.0	85.0	3349.55
-75.0	87.0	3354.01
-75.0	89.0	3352.37
-73.0	-89.0	3342.48
-73.0	-87.0	3342.48
-73.0	-85.0	3344.48
-73.0	-83.0	3292.66
-73.0	-81.0	3290.97
-73.0	-79.0	3348.19
-73.0	-77.0	3354.38
-73.0	-75.0	3271.12
-73.0	-73.0	3248.69
-73.0	-71.0	3254.22
-73.0	-69.0	3254.32
-73.0	-67.0	3277.89
-73.0	-65.0	3313.24
-73.0	-63.0	3314.77
-73.0	-61.0	3324.54
-73.0	-59.0	3319.24
-73.0	-57.0	3320.04
-73.0	-55.0	3299.84
-73.0	-53.0	3277.57
-73.0	-51.0	3267.44
-73.0	-49.0	3264.52
-73.0	-47.0	3264.53
-73.0	-45.0	3268.01
-73.0	-43.0	3268.88
-73.0	-41.0	3263.96
-73.0	-39.0	3261.03
-73.0	-37.0	3252.35
-73.0	-35.0	3307.96
-73.0	-33.0	3316.49
-73.0	-31.0	3307.36
-73.0	-29.0	3332.84
-73.0	-27.0	3337.03
-73.0	-25.0	3338.42
-73.0	-23.0	3338.39
-73.0	-21.0	3339.33
-73.0	-19.0	3338.39
-73.0	-17.0	3249.96
-73.0	-15.0	3295.98
-73.0	-13.0	3345.68
-73.0	-11.0	3344.26
-73.0	-9.0	3354.94
-73.0	-7.0	3347.97
-73.0	-5.0	3353.18
-73.0	-3.0	3345.74
-73.0	-1.0	3350.23
-73.0	1.0	3342.33
-73.0	3.0	3347.63
-73.0	5.0	3345.79
-73.0	7.0	3344.13
-73.0	9.0	3340.57
-73.0	11.0	3351.59
-73.0	13.0	3345.85
-73.0	15.0	3350.03
-73.0	17.0	3350.58
-73.0	19.0	3354.15
-73.0	21.0	3350.23
-73.0	23.0	3350.44
-73.0	25.0	3347.12
-73.0	27.0	3348.69
-73.0	29.0	3349.19
-73.0	31.0	3347.79
-73.0	33.0	3348.09
-73.0	35.0	3349.95
-73.0	37.0	3349.44
-73.0	39.0	3347.08
-73.0	41.0	3293.94
-73.0	43.0	3295.72
-73.0	45.0	3305.35
-73.0	47.0	3354.47
-73.0	49.0	3356.94
-73.0	51.0	3363.28
-73.0	53.0	3354.51
-73.0	55.0	3345.58
-73.0	57.0	3341.47
-73.0	59.0	3350.86
-73.0	61.0	3355.17
-73.0	63.0	3355.04
-73.0	65.0	3349.13
-73.0	67.0	3351.61
-73.0	69.0	3346.44
-73.0	71.0	3342.26
-73.0	73.0	3340.33
-73.0	75.0	3330.04
-73.0	77.0	3336.18
-73.0	79.0	3341.93
-73.0	81.0	3357.69
-73.0	83.0	3348.78
-73.0	85.0	3349.46
-73.0	87.0	3352.26
-73.0	89.0	3352.26
-71.0	-89.0	3344.56
-71.0	-87.0	3344.56
-71.0	-85.0	3343.36
-71.0	-83.0	3292.25
-71.0	-81.0	3289.83
-71.0	-79.0	3347.14
-71.0	-77.0	3349.54
-71.0	-75.0	3281.6
-71.0	-73.0	3247.8
-71.0	-71.0	3248.69
-71.0	-69.0	3245.46
-71.0	-67.0	3267.21
-71.0	-65.0	3323.44
-71.0	-63.0	3307.15
-71.0	-61.0	3321.0
-71.0	-59.0	3314.35
-71.0	-57.0	3311.8
-71.0	-55.0	3265.98
-71.0	-53.0	3270.34
-71.0	-51.0	3267.99
-71.0	-49.0	3265.62
-71.0	-47.0	3264.66
-71.0	-45.0	3264.77
-71.0	-43.0	3264.75
-71.0	-41.0	3252.24
-71.0	-39.0	3275.29
-71.0	-37.0	3256.67
-71.0	-35.0	3276.63
-71.0	-33.0	3254.49
-71.0	-31.0	3291.56
-71.0	-29.0	3255.21
-71.0	-27.0	3273.73
-71.0	-25.0	3333.78
-71.0	-23.0	3304.15
-71.0	-21.0	3305.96
-71.0	-19.0	3321.87
-71.0	-17.0	3305.48
-71.0	-15.0	3331.09
-71.0	-13.0	3352.45
-71.0	-11.0	3350.06
-71.0	-9.0	3348.58
-71.0	-7.0	3350.89
-71.0	-5.0	3339.41
-71.0	-3.0	3351.03
-71.0	-1.0	3354.2
-71.0	1.0	3337.7
-71.0	3.0	3348.33
-71.0	5.0	3350.85
-71.0	7.0	3324.89
-71.0	9.0	3343.35
-71.0	11.0	3346.46
-71.0	13.0	3353.84
-71.0	15.0	3349.68
-71.0	17.0	3350.56
-71.0	19.0	3349.8
-71.0	21.0	3350.21
-71.0	23.0	3347.55
-71.0	25.0	3345.01
-71.0	27.0	3347.0
-71.0	29.0	3347.73
-71.0	31.0	3346.53
-71.0	33.0	3347.31
-71.0	35.0	3351.05
-71.0	37.0	3351.55
-71.0	39.0	3349.99
-71.0	41.0	3343.89
-71.0	43.0	3354.54
-71.0	45.0	3303.24
-71.0	47.0	3350.85
-71.0	49.0	3342.74
-71.0	51.0	3349.43
-71.0	53.0	3343.3
-71.0	55.0	3341.86
-71.0	57.0	3346.79
-71.0	59.0	3346.56
-71.0	61.0	3360.47
-71.0	63.0	3357.73
-71.0	65.0	3346.78
-71.0	67.0	3354.41
-71.0	69.0	3347.44
-71.0	71.0	3351.35
-71.0	73.0	3338.43
-71.0	75.0	3332.24
-71.0	77.0	3348.47
-71.0	79.0	3346.53
-71.0	81.0	3359.45
-71.0	83.0	3345.54
-71.0	85.0	3349.2
-71.0	87.0	3352.14
-71.0	89.0	3352.14
-69.0	-89.0	3346.62
-69.0	-87.0	3346.62
-69.0	-85.0	3346.19
-69.0	-83.0	3291.99
-69.0	-81.0	3289.25
-69.0	-79.0	3324.43
-69.0	-77.0	3353.71
-69.0	-75.0	3337.4
-69.0	-73.0	3246.93
-69.0	-71.0	3245.99
-69.0	-69.0	3248.62
-69.0	-67.0	3246.36
-69.0	-65.0	3294.15
-69.0	-63.0	3318.3
-69.0	-61.0	3311.8
-69.0	-59.0	3315.64
-69.0	-57.0	3311.76
-69.0	-55.0	3267.02
-69.0	-53.0	3260.09
-69.0	-51.0	3253.72
-69.0	-49.0	3266.52
-69.0	-47.0	3266.72
-69.0	-45.0	3265.5
-69.0	-43.0	3264.26
-69.0	-41.0	3271.53
-69.0	-39.0	3262.08
-69.0	-37.0	3246.43
-69.0	-35.0	3262.89
-69.0	-33.0	3328.11
-69.0	-31.0	3342.28
-69.0	-29.0	3312.73
-69.0	-27.0	3312.12
-69.0	-25.0	3309.54
-69.0	-23.0	3343.24
-69.0	-21.0	3316.94
-69.0	-19.0	3318.66
-69.0	-17.0	3331.25
-69.0	-15.0	3278.45
-69.0	-13.0	3349.09
-69.0	-11.0	3349.82
-69.0	-9.0	3338.82
-69.0	-7.0	3339.47
-69.0	-5.0	3317.03
-69.0	-3.0	3346.06
-69.0	-1.0	3350.88
-69.0	1.0	3343.83
-69.0	3.0	3345.16
-69.0	5.0	3350.73
-69.0	7.0	3300.99
-69.0	9.0	3290.78
-69.0	11.0	3283.9
-69.0	13.0	3344.55
-69.0	15.0	3348.63
-69.0	17.0	3347.71
-69.0	19.0	3314.07
-69.0	21.0	3350.72
-69.0	23.0	3345.91
-69.0	25.0	3346.29
-69.0	27.0	3349.23
-69.0	29.0	3348.73
-69.0	31.0	3347.6
-69.0	33.0	3348.25
-69.0	35.0	3349.73
-69.0	37.0	3350.72
-69.0	39.0	3350.64
-69.0	41.0	3352.14
-69.0	43.0	3354.06
-69.0	45.0	3310.71
-69.0	47.0	3327.58
-69.0	49.0	3315.35
-69.0	51.0	3325.55
-69.0	53.0	3349.91
-69.0	55.0	3347.76
-69.0	57.0	3361.65
-69.0	59.0	3359.93
-69.0	61.0	3371.67
-69.0	63.0	3358.26
-69.0	65.0	3353.56
-69.0	67.0	3352.37
-69.0	69.0	3344.22
-69.0	71.0	3329.61
-69.0	73.0	3336.51
-69.0	75.0	3332.04
-69.0	77.0	3349.14
-69.0	79.0	3339.41
-69.0	81.0	3356.45
-69.0	83.0	3342.01
-69.0	85.0	3349.11
-69.0	87.0	3343.76
-69.0	89.0	3343.76
-67.0	-89.0	3348.33
-67.0	-87.0	3348.33
-67.0	-85.0	3354.43
-67.0	-83.0	3291.1
-67.0	-81.0	3291.14
-67.0	-79.0	3299.33
-67.0	-77.0	3347.66
-67.0	-75.0	3353.05
-67.0	-73.0	3246.93
-67.0	-71.0	3247.35
-67.0	-69.0	3248.21
-67.0	-67.0	3246.36
-67.0	-65.0	3276.99
-67.0	-63.0	3328.39
-67.0	-61.0	3318.39
-67.0	-59.0	3315.64
-67.0	-57.0	3317.25
-67.0	-55.0	3266.83
-67.0	-53.0	3265.65
-67.0	-51.0	3264.74
-67.0	-49.0	3269.01
-67.0	-47.0	3268.08
-67.0	-45.0	3265.9
-67.0	-43.0	3263.5
-67.0	-41.0	3269.61
-67.0	-39.0	3255.09
-67.0	-37.0	3274.56
-67.0	-35.0	3267.5
-67.0	-33.0	3285.9
-67.0	-31.0	3350.28
-67.0	-29.0	3266.5
-67.0	-27.0	3333.15
-67.0	-25.0	3328.97
-67.0	-23.0	3338.16
-67.0	-21.0	3337.72
-67.0	-19.0	3341.38
-67.0	-17.0	3319.4
-67.0	-15.0	3288.67
-67.0	-13.0	3354.18
-67.0	-11.0	3347.69
-67.0	-9.0	3351.62
-67.0	-7.0	3346.48
-67.0	-5.0	3341.2
-67.0	-3.0	3342.15
-67.0	-1.0	3345.28
-67.0	1.0	3324.83
-67.0	3.0	3308.53
-67.0	5.0	3328.63
-67.0	7.0	3352.68
-67.0	9.0	3313.88
-67.0	11.0	3350.74
-67.0	13.0	3343.21
-67.0	15.0	3347.31
-67.0	17.0	3345.51
-67.0	19.0	3345.1
-67.0	21.0	3348.84
-67.0	23.0	3344.34
-67.0	25.0	3348.51
-67.0	27.0	3351.94
-67.0	29.0	3351.46
-67.0	31.0	3349.68
-67.0	33.0	3350.15
-67.0	35.0	3348.51
-67.0	37.0	3349.1
-67.0	39.0	3350.93
-67.0	41.0	3313.23
-67.0	43.0	3337.87
-67.0	45.0	3326.99
-67.0	47.0	3346.72
-67.0	49.0	3313.12
-67.0	51.0	3331.31
-67.0	53.0	3336.68
-67.0	55.0	3341.17
-67.0	57.0	3366.57
-67.0	59.0	3357.65
-67.0	61.0	3374.35
-67.0	63.0	3369.29
-67.0	65.0	3351.27
-67.0	67.0	3345.22
-67.0	69.0	3351.07
-67.0	71.0	3292.22
-67.0	73.0	3332.33
-67.0	75.0	3331.98
-67.0	77.0	3348.21
-67.0	79.0	3342.93
-67.0	81.0	3351.91
-67.0	83.0	3348.75
-67.0	85.0	3348.72
-67.0	87.0	3343.05
-67.0	89.0	3343.05
-65.0	-89.0	3349.7
-65.0	-87.0	3349.7
-65.0	-85.0	3348.06
-65.0	-83.0	3290.97
-65.0	-81.0	3294.98
-65.0	-79.0	3298.48
-65.0	-77.0	3353.2
-65.0	-75.0	3318.72
-65.0	-73.0	3252.72
-65.0	-71.0	3245.99
-65.0	-69.0	3257.31
-65.0	-67.0	3248.69
-65.0	-65.0	3273.46
-65.0	-63.0	3310.32
-65.0	-61.0	3322.25
-65.0	-59.0	3312.0
-65.0	-57.0	3316.24
-65.0	-55.0	3310.49
-65.0	-53.0	3291.96
-65.0	-51.0	3351.85
-65.0	-49.0	3282.11
-65.0	-47.0	3293.88
-65.0	-45.0	3268.99
-65.0	-43.0	3259.2
-65.0	-41.0	3271.66
-65.0	-39.0	3288.88
-65.0	-37.0	3293.94
-65.0	-35.0	3279.89
-65.0	-33.0	3270.34
-65.0	-31.0	3283.91
-65.0	-29.0	3274.33
-65.0	-27.0	3271.17
-65.0	-25.0	3279.61
-65.0	-23.0	3334.41
-65.0	-21.0	3298.35
-65.0	-19.0	3341.84
-65.0	-17.0	3305.15
-65.0	-15.0	3294.99
-65.0	-13.0	3345.65
-65.0	-11.0	3345.09
-65.0	-9.0	3349.52
-65.0	-7.0	3347.16
-65.0	-5.0	3348.91
-65.0	-3.0	3346.79
-65.0	-1.0	3353.41
-65.0	1.0	3316.61
-65.0	3.0	3347.0
-65.0	5.0	3338.04
-65.0	7.0	3349.25
-65.0	9.0	3348.39
-65.0	11.0	3342.43
-65.0	13.0	3323.8
-65.0	15.0	3350.11
-65.0	17.0	3346.71
-65.0	19.0	3342.71
-65.0	21.0	3346.65
-65.0	23.0	3342.69
-65.0	25.0	3347.76
-65.0	27.0	3350.35
-65.0	29.0	3351.37
-65.0	31.0	3352.07
-65.0	33.0	3354.68
-65.0	35.0	3349.64
-65.0	37.0	3349.67
-65.0	39.0	3351.53
-65.0	41.0	3349.26
-65.0	43.0	3298.05
-65.0	45.0	3288.02
-65.0	47.0	3304.76
-65.0	49.0	3344.64
-65.0	51.0	3347.9
-65.0	53.0	3345.52
-65.0	55.0	3351.3
-65.0	57.0	3358.04
-65.0	59.0	3366.46
-65.0	61.0	3375.35
-65.0	63.0	3375.59
-65.0	65.0	3362.96
-65.0	67.0	3345.29
-65.0	69.0	3342.45
-65.0	71.0	3335.04
-65.0	73.0	3329.01
-65.0	75.0	3333.47
-65.0	77.0	3350.53
-65.0	79.0	3342.82
-65.0	81.0	3347.23
-65.0	83.0	3354.67
-65.0	85.0	3348.7
-65.0	87.0	3340.0
-65.0	89.0	3340.0
-63.0	-89.0	3351.05
-63.0	-87.0	3351.05
-63.0	-85.0	3353.02
-63.0	-83.0	3293.69
-63.0	-81.0	3297.86
-63.0	-79.0	3320.98
-63.0	-77.0	3344.98
-63.0	-75.0	3283.47
-63.0	-73.0	3259.59
-63.0	-71.0	3246.57
-63.0	-69.0	3269.36
-63.0	-67.0	3271.36
-63.0	-65.0	3268.68
-63.0	-63.0	3280.67
-63.0	-61.0	3322.33
-63.0	-59.0	3304.36
-63.0	-57.0	3291.31
-63.0	-55.0	3311.98
-63.0	-53.0	3346.1
-63.0	-51.0	3345.46
-63.0	-49.0	3340.27
-63.0	-47.0	3301.25
-63.0	-45.0	3323.42
-63.0	-43.0	3339.25
-63.0	-41.0	3350.17
-63.0	-39.0	3296.83
-63.0	-37.0	3312.78
-63.0	-35.0	3311.53
-63.0	-33.0	3339.01
-63.0	-31.0	3330.68
-63.0	-29.0	3321.01
-63.0	-27.0	3300.09
-63.0	-25.0	3285.15
-63.0	-23.0	3291.49
-63.0	-21.0	3342.09
-63.0	-19.0	3347.83
-63.0	-17.0	3344.63
-63.0	-15.0	3300.72
-63.0	-13.0	3300.08
-63.0	-11.0	3343.77
-63.0	-9.0	3326.96
-63.0	-7.0	3345.41
-63.0	-5.0	3342.58
-63.0	-3.0	3343.96
-63.0	-1.0	3352.81
-63.0	1.0	3345.69
-63.0	3.0	3346.29
-63.0	5.0	3339.09
-63.0	7.0	3342.3
-63.0	9.0	3346.41
-63.0	11.0	3352.85
-63.0	13.0	3305.82
-63.0	15.0	3344.98
-63.0	17.0	3340.82
-63.0	19.0	3340.82
-63.0	21.0	3346.81
-63.0	23.0	3343.33
-63.0	25.0	3345.66
-63.0	27.0	3346.89
-63.0	29.0	3349.32
-63.0	31.0	3351.01
-63.0	33.0	3352.38
-63.0	35.0	3350.24
-63.0	37.0	3349.9
-63.0	39.0	3351.66
-63.0	41.0	3348.39
-63.0	43.0	3305.24
-63.0	45.0	3326.35
-63.0	47.0	3350.09
-63.0	49.0	3347.06
-63.0	51.0	3353.36
-63.0	53.0	3344.79
-63.0	55.0	3342.31
-63.0	57.0	3362.55
-63.0	59.0	3363.83
-63.0	61.0	3358.49
-63.0	63.0	3360.88
-63.0	65.0	3343.59
-63.0	67.0	3345.17
-63.0	69.0	3341.03
-63.0	71.0	3332.24
-63.0	73.0	3340.93
-63.0	75.0	3349.07
-63.0	77.0	3348.77
-63.0	79.0	3343.72
-63.0	81.0	3345.2
-63.0	83.0	3354.48
-63.0	85.0	3348.65
-63.0	87.0	3337.45
-63.0	89.0	3337.45
-61.0	-89.0	3341.47
-61.0	-87.0	3341.47
-61.0	-85.0	3347.81
-61.0	-83.0	3296.12
-61.0	-81.0	3299.83
-61.0	-79.0	3350.19
-61.0	-77.0	3347.36
-61.0	-75.0	3286.14
-61.0	-73.0	3260.08
-61.0	-71.0	3266.06
-61.0	-69.0	3271.77
-61.0	-67.0	3271.85
-61.0	-65.0	3271.65
-61.0	-63.0	3275.64
-61.0	-61.0	3323.24
-61.0	-59.0	3305.41
-61.0	-57.0	3289.79
-61.0	-55.0	3305.58
-61.0	-53.0	3354.91
-61.0	-51.0	3356.55
-61.0	-49.0	3334.06
-61.0	-47.0	3335.76
-61.0	-45.0	3349.12
-61.0	-43.0	3349.89
-61.0	-41.0	3353.51
-61.0	-39.0	3312.44
-61.0	-37.0	3324.65
-61.0	-35.0	3331.42
-61.0	-33.0	3324.94
-61.0	-31.0	3314.16
-61.0	-29.0	3314.08
-61.0	-27.0	3300.72
-61.0	-25.0	3295.29
-61.0	-23.0	3294.64
-61.0	-21.0	3298.07
-61.0	-19.0	3303.75
-61.0	-17.0	3332.02
-61.0	-15.0	3345.09
-61.0	-13.0	3292.89
-61.0	-11.0	3348.11
-61.0	-9.0	3342.67
-61.0	-7.0	3342.27
-61.0	-5.0	3339.21
-61.0	-3.0	3346.47
-61.0	-1.0	3333.61
-61.0	1.0	3344.27
-61.0	3.0	3361.33
-61.0	5.0	3355.17
-61.0	7.0	3346.81
-61.0	9.0	3355.25
-61.0	11.0	3352.74
-61.0	13.0	3349.85
-61.0	15.0	3321.74
-61.0	17.0	3342.27
-61.0	19.0	3337.78
-61.0	21.0	3345.62
-61.0	23.0	3343.76
-61.0	25.0	3343.98
-61.0	27.0	3342.48
-61.0	29.0	3346.49
-61.0	31.0	3348.95
-61.0	33.0	3350.0
-61.0	35.0	3349.77
-61.0	37.0	3350.57
-61.0	39.0	3351.26
-61.0	41.0	3347.1
-61.0	43.0	3344.94
-61.0	45.0	3345.97
-61.0	47.0	3350.91
-61.0	49.0	3346.66
-61.0	51.0	3346.56
-61.0	53.0	3346.82
-61.0	55.0	3347.99
-61.0	57.0	3355.26
-61.0	59.0	3359.31
-61.0	61.0	3338.86
-61.0	63.0	3340.68
-61.0	65.0	3336.72
-61.0	67.0	3348.48
-61.0	69.0	3337.3
-61.0	71.0	3334.83
-61.0	73.0	3337.84
-61.0	75.0	3346.14
-61.0	77.0	3342.26
-61.0	79.0	3340.32
-61.0	81.0	3341.06
-61.0	83.0	3346.25
-61.0	85.0	3347.77
-61.0	87.0	3335.53
-61.0	89.0	3335.53
-59.0	-89.0	3342.79
-59.0	-87.0	3342.79
-59.0	-85.0	3343.55
-59.0	-83.0	3312.41
-59.0	-81.0	3321.59
-59.0	-79.0	3344.08
-59.0	-77.0	3348.63
-59.0	-75.0	3288.29
-59.0	-73.0	3269.33
-59.0	-71.0	3272.75
-59.0	-69.0	3268.5
-59.0	-67.0	3283.61
-59.0	-65.0	3275.51
-59.0	-63.0	3276.8
-59.0	-61.0	3310.06
-59.0	-59.0	3315.25
-59.0	-57.0	3285.72
-59.0	-55.0	3303.3
-59.0	-53.0	3347.93
-59.0	-51.0	3341.44
-59.0	-49.0	3346.58
-59.0	-47.0	3348.78
-59.0	-45.0	3350.22
-59.0	-43.0	3349.43
-59.0	-41.0	3351.41
-59.0	-39.0	3333.75
-59.0	-37.0	3318.25
-59.0	-35.0	3342.16
-59.0	-33.0	3326.96
-59.0	-31.0	3327.73
-59.0	-29.0	3320.86
-59.0	-27.0	3313.92
-59.0	-25.0	3306.91
-59.0	-23.0	3295.46
-59.0	-21.0	3304.49
-59.0	-19.0	3298.36
-59.0	-17.0	3303.65
-59.0	-15.0	3299.13
-59.0	-13.0	3339.97
-59.0	-11.0	3356.14
-59.0	-9.0	3350.99
-59.0	-7.0	3345.46
-59.0	-5.0	3346.59
-59.0	-3.0	3347.12
-59.0	-1.0	3312.06
-59.0	1.0	3341.86
-59.0	3.0	3373.29
-59.0	5.0	3343.4
-59.0	7.0	3343.17
-59.0	9.0	3346.62
-59.0	11.0	3341.69
-59.0	13.0	3340.05
-59.0	15.0	3338.88
-59.0	17.0	3340.26
-59.0	19.0	3343.29
-59.0	21.0	3345.75
-59.0	23.0	3342.17
-59.0	25.0	3342.65
-59.0	27.0	3340.38
-59.0	29.0	3344.22
-59.0	31.0	3347.31
-59.0	33.0	3347.51
-59.0	35.0	3349.02
-59.0	37.0	3351.42
-59.0	39.0	3348.26
-59.0	41.0	3344.94
-59.0	43.0	3341.8
-59.0	45.0	3347.13
-59.0	47.0	3362.18
-59.0	49.0	3360.2
-59.0	51.0	3368.41
-59.0	53.0	3351.62
-59.0	55.0	3341.9
-59.0	57.0	3346.81
-59.0	59.0	3343.07
-59.0	61.0	3337.74
-59.0	63.0	3346.71
-59.0	65.0	3343.4
-59.0	67.0	3337.51
-59.0	69.0	3334.61
-59.0	71.0	3336.24
-59.0	73.0	3351.01
-59.0	75.0	3344.93
-59.0	77.0	3352.73
-59.0	79.0	3355.54
-59.0	81.0	3349.08
-59.0	83.0	3346.9
-59.0	85.0	3341.97
-59.0	87.0	3332.16
-59.0	89.0	3332.16
-57.0	-89.0	3344.2
-57.0	-87.0	3344.2
-57.0	-85.0	3349.53
-57.0	-83.0	3342.74
-57.0	-81.0	3345.99
-57.0	-79.0	3347.26
-57.0	-77.0	3349.77
-57.0	-75.0	3309.65
-57.0	-73.0	3268.51
-57.0	-71.0	3270.93
-57.0	-69.0	3266.55
-57.0	-67.0	3285.46
-57.0	-65.0	3276.17
-57.0	-63.0	3272.01
-57.0	-61.0	3303.9
-57.0	-59.0	3315.79
-57.0	-57.0	3285.27
-57.0	-55.0	3309.34
-57.0	-53.0	3322.06
-57.0	-51.0	3347.96
-57.0	-49.0	3350.85
-57.0	-47.0	3346.16
-57.0	-45.0	3346.72
-57.0	-43.0	3348.63
-57.0	-41.0	3321.59
-57.0	-39.0	3336.87
-57.0	-37.0	3349.97
-57.0	-35.0	3341.52
-57.0	-33.0	3310.92
-57.0	-31.0	3316.68
-57.0	-29.0	3315.46
-57.0	-27.0	3348.45
-57.0	-25.0	3343.28
-57.0	-23.0	3297.13
-57.0	-21.0	3300.07
-57.0	-19.0	3300.65
-57.0	-17.0	3299.01
-57.0	-15.0	3314.84
-57.0	-13.0	3351.12
-57.0	-11.0	3347.11
-57.0	-9.0	3349.31
-57.0	-7.0	3350.8
-57.0	-5.0	3345.23
-57.0	-3.0	3347.95
-57.0	-1.0	3352.87
-57.0	1.0	3344.88
-57.0	3.0	3363.7
-57.0	5.0	3347.92
-57.0	7.0	3347.01
-57.0	9.0	3346.46
-57.0	11.0	3342.77
-57.0	13.0	3342.2
-57.0	15.0	3340.75
-57.0	17.0	3338.22
-57.0	19.0	3340.36
-57.0	21.0	3343.51
-57.0	23.0	3339.64
-57.0	25.0	3338.97
-57.0	27.0	3338.1
-57.0	29.0	3342.8
-57.0	31.0	3344.64
-57.0	33.0	3344.43
-57.0	35.0	3347.08
-57.0	37.0	3348.35
-57.0	39.0	3345.17
-57.0	41.0	3343.15
-57.0	43.0	3342.15
-57.0	45.0	3350.73
-57.0	47.0	3345.73
-57.0	49.0	3371.89
-57.0	51.0	3363.05
-57.0	53.0	3340.58
-57.0	55.0	3350.83
-57.0	57.0	3342.7
-57.0	59.0	3342.04
-57.0	61.0	3338.17
-57.0	63.0	3348.57
-57.0	65.0	3341.81
-57.0	67.0	3334.94
-57.0	69.0	3338.34
-57.0	71.0	3331.72
-57.0	73.0	3346.08
-57.0	75.0	3340.44
-57.0	77.0	3365.44
-57.0	79.0	3366.9
-57.0	81.0	3346.48
-57.0	83.0	3344.73
-57.0	85.0	3339.42
-57.0	87.0	3331.16
-57.0	89.0	3336.83
-55.0	-89.0	3345.6
-55.0	-87.0	3345.6
-55.0	-85.0	3351.54
-55.0	-83.0	3349.52
-55.0	-81.0	3347.27
-55.0	-79.0	3350.07
-55.0	-77.0	3350.21
-55.0	-75.0	3330.59
-55.0	-73.0	3271.63
-55.0	-71.0	3278.0
-55.0	-69.0	3287.04
-55.0	-67.0	3279.74
-55.0	-65.0	3275.91
-55.0	-63.0	3249.04
-55.0	-61.0	3246.8
-55.0	-59.0	3313.36
-55.0	-57.0	3294.65
-55.0	-55.0	3318.63
-55.0	-53.0	3313.99
-55.0	-51.0	3344.95
-55.0	-49.0	3348.99
-55.0	-47.0	3342.87
-55.0	-45.0	3343.79
-55.0	-43.0	3345.58
-55.0	-41.0	3347.05
-55.0	-39.0	3333.75
-55.0	-37.0	3356.27
-55.0	-35.0	3351.19
-55.0	-33.0	3300.76
-55.0	-31.0	3307.89
-55.0	-29.0	3320.35
-55.0	-27.0	3344.77
-55.0	-25.0	3347.59
-55.0	-23.0	3327.7
-55.0	-21.0	3317.52
-55.0	-19.0	3352.03
-55.0	-17.0	3300.38
-55.0	-15.0	3334.2
-55.0	-13.0	3345.73
-55.0	-11.0	3350.12
-55.0	-9.0	3369.15
-55.0	-7.0	3358.5
-55.0	-5.0	3351.75
-55.0	-3.0	3355.09
-55.0	-1.0	3361.01
-55.0	1.0	3350.47
-55.0	3.0	3342.08
-55.0	5.0	3340.62
-55.0	7.0	3357.1
-55.0	9.0	3346.02
-55.0	11.0	3344.02
-55.0	13.0	3343.04
-55.0	15.0	3333.77
-55.0	17.0	3336.21
-55.0	19.0	3336.42
-55.0	21.0	3336.93
-55.0	23.0	3334.26
-55.0	25.0	3334.92
-55.0	27.0	3336.6
-55.0	29.0	3341.38
-55.0	31.0	3341.49
-55.0	33.0	3342.35
-55.0	35.0	3343.73
-55.0	37.0	3346.19
-55.0	39.0	3345.4
-55.0	41.0	3343.7
-55.0	43.0	3344.28
-55.0	45.0	3347.69
-55.0	47.0	3352.91
-55.0	49.0	3353.39
-55.0	51.0	3345.3
-55.0	53.0	3350.37
-55.0	55.0	3344.71
-55.0	57.0	3340.24
-55.0	59.0	3337.19
-55.0	61.0	3340.75
-55.0	63.0	3348.25
-55.0	65.0	3339.69
-55.0	67.0	3285.78
-55.0	69.0	3301.75
-55.0	71.0	3345.92
-55.0	73.0	3346.78
-55.0	75.0	3352.98
-55.0	77.0	3376.88
-55.0	79.0	3362.56
-55.0	81.0	3344.54
-55.0	83.0	3352.74
-55.0	85.0	3338.47
-55.0	87.0	3329.88
-55.0	89.0	3335.78
-53.0	-89.0	3346.72
-53.0	-87.0	3346.72
-53.0	-85.0	3352.55
-53.0	-83.0	3348.37
-53.0	-81.0	3351.26
-53.0	-79.0	3345.06
-53.0	-77.0	3350.83
-53.0	-75.0	3351.8
-53.0	-73.0	3277.53
-53.0	-71.0	3311.57
-53.0	-69.0	3348.68
-53.0	-67.0	3348.97
-53.0	-65.0	3296.24
-53.0	-63.0	3249.29
-53.0	-61.0	3242.77
-53.0	-59.0	3314.96
-53.0	-57.0	3308.72
-53.0	-55.0	3314.65
-53.0	-53.0	3344.97
-53.0	-51.0	3358.42
-53.0	-49.0	3350.23
-53.0	-47.0	3340.57
-53.0	-45.0	3343.98
-53.0	-43.0	3345.46
-53.0	-41.0	3345.21
-53.0	-39.0	3348.31
-53.0	-37.0	3346.75
-53.0	-35.0	3353.83
-53.0	-33.0	3304.19
-53.0	-31.0	3317.1
-53.0	-29.0	3317.68
-53.0	-27.0	3346.16
-53.0	-25.0	3350.87
-53.0	-23.0	3349.04
-53.0	-21.0	3348.12
-53.0	-19.0	3345.22
-53.0	-17.0	3337.73
-53.0	-15.0	3345.8
-53.0	-13.0	3345.72
-53.0	-11.0	3352.73
-53.0	-9.0	3356.79
-53.0	-7.0	3365.91
-53.0	-5.0	3354.84
-53.0	-3.0	3360.01
-53.0	-1.0	3372.27
-53.0	1.0	3339.22
-53.0	3.0	3351.93
-53.0	5.0	3338.47
-53.0	7.0	3352.03
-53.0	9.0	3346.9
-53.0	11.0	3340.57
-53.0	13.0	3335.66
-53.0	15.0	3332.44
-53.0	17.0	3334.33
-53.0	19.0	3328.93
-53.0	21.0	3330.05
-53.0	23.0	3329.7
-53.0	25.0	3331.04
-53.0	27.0	3332.56
-53.0	29.0	3335.2
-53.0	31.0	3336.56
-53.0	33.0	3341.77
-53.0	35.0	3346.32
-53.0	37.0	3346.69
-53.0	39.0	3346.81
-53.0	41.0	3347.0
-53.0	43.0	3348.43
-53.0	45.0	3348.83
-53.0	47.0	3349.21
-53.0	49.0	3343.31
-53.0	51.0	3352.43
-53.0	53.0	3350.35
-53.0	55.0	3343.94
-53.0	57.0	3336.32
-53.0	59.0	3333.64
-53.0	61.0	3341.18
-53.0	63.0	3345.07
-53.0	65.0	3270.26
-53.0	67.0	3297.6
-53.0	69.0	3354.93
-53.0	71.0	3345.38
-53.0	73.0	3346.41
-53.0	75.0	3362.3
-53.0	77.0	3384.03
-53.0	79.0	3358.56
-53.0	81.0	3343.37
-53.0	83.0	3348.68
-53.0	85.0	3338.56
-53.0	87.0	3329.33
-53.0	89.0	3335.37
-51.0	-89.0	3347.65
-51.0	-87.0	3347.65
-51.0	-85.0	3353.66
-51.0	-83.0	3353.8
-51.0	-81.0	3346.97
-51.0	-79.0	3351.96
-51.0	-77.0	3350.46
-51.0	-75.0	3353.27
-51.0	-73.0	3282.67
-51.0	-71.0	3333.73
-51.0	-69.0	3349.66
-51.0	-67.0	3350.28
-51.0	-65.0	3350.63
-51.0	-63.0	3348.0
-51.0	-61.0	3301.98
-51.0	-59.0	3317.02
-51.0	-57.0	3305.55
-51.0	-55.0	3289.52
-51.0	-53.0	3327.6
-51.0	-51.0	3348.34
-51.0	-49.0	3348.51
-51.0	-47.0	3338.26
-51.0	-45.0	3343.88
-51.0	-43.0	3347.93
-51.0	-41.0	3346.23
-51.0	-39.0	3346.54
-51.0	-37.0	3346.62
-51.0	-35.0	3347.44
-51.0	-33.0	3328.5
-51.0	-31.0	3319.65
-51.0	-29.0	3353.39
-51.0	-27.0	3343.56
-51.0	-25.0	3353.96
-51.0	-23.0	3349.64
-51.0	-21.0	3340.6
-51.0	-19.0	3345.56
-51.0	-17.0	3346.85
-51.0	-15.0	3343.88
-51.0	-13.0	3337.62
-51.0	-11.0	3347.16
-51.0	-9.0	3361.03
-51.0	-7.0	3365.14
-51.0	-5.0	3355.99
-51.0	-3.0	3349.38
-51.0	-1.0	3353.27
-51.0	1.0	3360.78
-51.0	3.0	3348.28
-51.0	5.0	3349.11
-51.0	7.0	3343.72
-51.0	9.0	3340.66
-51.0	11.0	3336.21
-51.0	13.0	3330.83
-51.0	15.0	3330.81
-51.0	17.0	3321.4
-51.0	19.0	3320.35
-51.0	21.0	3323.81
-51.0	23.0	3323.97
-51.0	25.0	3325.14
-51.0	27.0	3327.5
-51.0	29.0	3330.48
-51.0	31.0	3332.23
-51.0	33.0	3340.9
-51.0	35.0	3350.78
-51.0	37.0	3345.91
-51.0	39.0	3345.71
-51.0	41.0	3351.78
-51.0	43.0	3350.39
-51.0	45.0	3341.84
-51.0	47.0	3344.77
-51.0	49.0	3353.54
-51.0	51.0	3349.17
-51.0	53.0	3341.98
-51.0	55.0	3343.03
-51.0	57.0	3336.11
-51.0	59.0	3333.84
-51.0	61.0	3341.57
-51.0	63.0	3352.06
-51.0	65.0	3291.91
-51.0	67.0	3325.15
-51.0	69.0	3350.68
-51.0	71.0	3343.93
-51.0	73.0	3354.48
-51.0	75.0	3364.84
-51.0	77.0	3381.63
-51.0	79.0	3356.6
-51.0	81.0	3345.33
-51.0	83.0	3355.19
-51.0	85.0	3338.5
-51.0	87.0	3328.54
-51.0	89.0	3334.41
-49.0	-89.0	3348.42
-49.0	-87.0	3348.42
-49.0	-85.0	3354.86
-49.0	-83.0	3355.29
-49.0	-81.0	3349.82
-49.0	-79.0	3352.26
-49.0	-77.0	3350.06
-49.0	-75.0	3347.84
-49.0	-73.0	3285.51
-49.0	-71.0	3346.72
-49.0	-69.0	3349.97
-49.0	-67.0	3350.81
-49.0	-65.0	3351.13
-49.0	-63.0	3303.92
-49.0	-61.0	3306.46
-49.0	-59.0	3314.68
-49.0	-57.0	3306.02
-49.0	-55.0	3287.61
-49.0	-53.0	3327.3
-49.0	-51.0	3349.48
-49.0	-49.0	3346.34
-49.0	-47.0	3337.82
-49.0	-45.0	3343.68
-49.0	-43.0	3348.33
-49.0	-41.0	3346.58
-49.0	-39.0	3346.12
-49.0	-37.0	3346.74
-49.0	-35.0	3346.52
-49.0	-33.0	3347.32
-49.0	-31.0	3346.78
-49.0	-29.0	3341.63
-49.0	-27.0	3268.88
-49.0	-25.0	3346.03
-49.0	-23.0	3353.89
-49.0	-21.0	3345.0
-49.0	-19.0	3352.81
-49.0	-17.0	3344.89
-49.0	-15.0	3349.72
-49.0	-13.0	3346.22
-49.0	-11.0	3340.74
-49.0	-9.0	3360.78
-49.0	-7.0	3367.84
-49.0	-5.0	3342.53
-49.0	-3.0	3344.94
-49.0	-1.0	3343.04
-49.0	1.0	3344.52
-49.0	3.0	3354.95
-49.0	5.0	3344.63
-49.0	7.0	3341.92
-49.0	9.0	3339.02
-49.0	11.0	3330.81
-49.0	13.0	3323.78
-49.0	15.0	3322.19
-49.0	17.0	3294.01
-49.0	19.0	3306.55
-49.0	21.0	3311.06
-49.0	23.0	3311.81
-49.0	25.0	3305.14
-49.0	27.0	3317.56
-49.0	29.0	3323.86
-49.0	31.0	3327.77
-49.0	33.0	3334.85
-49.0	35.0	3347.08
-49.0	37.0	3343.47
-49.0	39.0	3344.77
-49.0	41.0	3355.42
-49.0	43.0	3352.2
-49.0	45.0	3354.09
-49.0	47.0	3350.01
-49.0	49.0	3326.81
-49.0	51.0	3327.01
-49.0	53.0	3342.35
-49.0	55.0	3342.3
-49.0	57.0	3335.55
-49.0	59.0	3334.14
-49.0	61.0	3342.41
-49.0	63.0	3343.13
-49.0	65.0	3339.72
-49.0	67.0	3351.05
-49.0	69.0	3339.33
-49.0	71.0	3352.16
-49.0	73.0	3368.5
-49.0	75.0	3366.54
-49.0	77.0	3383.21
-49.0	79.0	3363.02
-49.0	81.0	3346.89
-49.0	83.0	3345.73
-49.0	85.0	3335.57
-49.0	87.0	3342.38
-49.0	89.0	3339.03
-47.0	-89.0	3349.38
-47.0	-87.0	3349.38
-47.0	-85.0	3356.1
-47.0	-83.0	3356.29
-47.0	-81.0	3351.09
-47.0	-79.0	3351.32
-47.0	-77.0	3351.97
-47.0	-75.0	3315.92
-47.0	-73.0	3287.37
-47.0	-71.0	3348.02
-47.0	-69.0	3350.49
-47.0	-67.0	3350.65
-47.0	-65.0	3347.01
-47.0	-63.0	3305.72
-47.0	-61.0	3285.77
-47.0	-59.0	3316.88
-47.0	-57.0	3313.2
-47.0	-55.0	3286.38
-47.0	-53.0	3332.6
-47.0	-51.0	3350.44
-47.0	-49.0	3345.85
-47.0	-47.0	3338.57
-47.0	-45.0	3344.26
-47.0	-43.0	3347.94
-47.0	-41.0	3346.38
-47.0	-39.0	3345.93
-47.0	-37.0	3346.01
-47.0	-35.0	3344.67
-47.0	-33.0	3345.86
-47.0	-31.0	3349.09
-47.0	-29.0	3347.99
-47.0	-27.0	3280.55
-47.0	-25.0	3262.81
-47.0	-23.0	3298.48
-47.0	-21.0	3354.64
-47.0	-19.0	3342.63
-47.0	-17.0	3347.04
-47.0	-15.0	3344.03
-47.0	-13.0	3350.28
-47.0	-11.0	3355.73
-47.0	-9.0	3359.56
-47.0	-7.0	3354.12
-47.0	-5.0	3340.66
-47.0	-3.0	3294.64
-47.0	-1.0	3355.56
-47.0	1.0	3348.65
-47.0	3.0	3345.28
-47.0	5.0	3345.76
-47.0	7.0	3344.29
-47.0	9.0	3336.84
-47.0	11.0	3325.02
-47.0	13.0	3307.12
-47.0	15.0	3291.38
-47.0	17.0	3242.3
-47.0	19.0	3256.27
-47.0	21.0	3280.6
-47.0	23.0	3289.76
-47.0	25.0	3263.2
-47.0	27.0	3294.45
-47.0	29.0	3311.5
-47.0	31.0	3319.11
-47.0	33.0	3328.74
-47.0	35.0	3340.33
-47.0	37.0	3340.67
-47.0	39.0	3343.78
-47.0	41.0	3350.67
-47.0	43.0	3349.5
-47.0	45.0	3350.33
-47.0	47.0	3342.84
-47.0	49.0	3345.38
-47.0	51.0	3346.83
-47.0	53.0	3339.89
-47.0	55.0	3341.8
-47.0	57.0	3335.97
-47.0	59.0	3337.77
-47.0	61.0	3291.81
-47.0	63.0	3354.25
-47.0	65.0	3347.63
-47.0	67.0	3350.42
-47.0	69.0	3341.76
-47.0	71.0	3353.98
-47.0	73.0	3372.32
-47.0	75.0	3367.38
-47.0	77.0	3384.95
-47.0	79.0	3369.73
-47.0	81.0	3348.12
-47.0	83.0	3351.33
-47.0	85.0	3337.2
-47.0	87.0	3340.03
-47.0	89.0	3339.94
-45.0	-89.0	3350.39
-45.0	-87.0	3350.39
-45.0	-85.0	3356.7
-45.0	-83.0	3356.46
-45.0	-81.0	3353.07
-45.0	-79.0	3352.16
-45.0	-77.0	3354.27
-45.0	-75.0	3342.49
-45.0	-73.0	3288.7
-45.0	-71.0	3349.84
-45.0	-69.0	3350.94
-45.0	-67.0	3349.88
-45.0	-65.0	3341.67
-45.0	-63.0	3309.26
-45.0	-61.0	3284.44
-45.0	-59.0	3319.77
-45.0	-57.0	3316.39
-45.0	-55.0	3307.86
-45.0	-53.0	3343.12
-45.0	-51.0	3349.6
-45.0	-49.0	3346.89
-45.0	-47.0	3338.97
-45.0	-45.0	3342.85
-45.0	-43.0	3345.16
-45.0	-41.0	3343.52
-45.0	-39.0	3344.49
-45.0	-37.0	3344.48
-45.0	-35.0	3343.73
-45.0	-33.0	3346.87
-45.0	-31.0	3350.89
-45.0	-29.0	3348.21
-45.0	-27.0	3347.23
-45.0	-25.0	3284.74
-45.0	-23.0	3302.39
-45.0	-21.0	3354.18
-45.0	-19.0	3343.47
-45.0	-17.0	3341.43
-45.0	-15.0	3344.0
-45.0	-13.0	3352.46
-45.0	-11.0	3349.9
-45.0	-9.0	3360.96
-45.0	-7.0	3350.01
-45.0	-5.0	3348.51
-45.0	-3.0	3352.55
-45.0	-1.0	3351.73
-45.0	1.0	3350.86
-45.0	3.0	3343.4
-45.0	5.0	3346.68
-45.0	7.0	3342.93
-45.0	9.0	3329.92
-45.0	11.0	3317.53
-45.0	13.0	3245.37
-45.0	15.0	3275.67
-45.0	17.0	3303.91
-45.0	19.0	3292.4
-45.0	21.0	3292.29
-45.0	23.0	3280.27
-45.0	25.0	3290.94
-45.0	27.0	3248.27
-45.0	29.0	3281.72
-45.0	31.0	3310.17
-45.0	33.0	3325.14
-45.0	35.0	3330.57
-45.0	37.0	3337.15
-45.0	39.0	3341.83
-45.0	41.0	3344.44
-45.0	43.0	3347.94
-45.0	45.0	3347.71
-45.0	47.0	3347.07
-45.0	49.0	3324.42
-45.0	51.0	3347.66
-45.0	53.0	3338.66
-45.0	55.0	3338.6
