lon	lat	RHO_C
-95.0	89.0	2731.43
-93.0	-89.0	2842.91
-93.0	-87.0	2842.91
-93.0	-85.0	2817.46
-93.0	-83.0	2812.12
-93.0	-81.0	2804.62
-93.0	-79.0	2815.72
-93.0	-77.0	2789.44
-93.0	-75.0	2822.52
-93.0	-73.0	2861.72
-93.0	-71.0	2828.18
-93.0	-69.0	2789.87
-93.0	-67.0	2843.95
-93.0	-65.0	2874.67
-93.0	-63.0	2907.82
-93.0	-61.0	2928.2
-93.0	-59.0	2940.7
-93.0	-57.0	2977.48
-93.0	-55.0	2986.35
-93.0	-53.0	2978.35
-93.0	-51.0	2989.29
-93.0	-49.0	2990.63
-93.0	-47.0	2983.54
-93.0	-45.0	2976.74
-93.0	-43.0	2972.31
-93.0	-41.0	2875.21
-93.0	-39.0	2784.4
-93.0	-37.0	2822.33
-93.0	-35.0	2937.48
-93.0	-33.0	2950.1
-93.0	-31.0	2956.06
-93.0	-29.0	2931.86
-93.0	-27.0	2934.91
-93.0	-25.0	2931.51
-93.0	-23.0	2961.84
-93.0	-21.0	2972.8
-93.0	-19.0	2980.97
-93.0	-17.0	2976.43
-93.0	-15.0	2946.19
-93.0	-13.0	2908.03
-93.0	-11.0	2912.19
-93.0	-9.0	2947.89
-93.0	-7.0	2959.72
-93.0	-5.0	2951.38
-93.0	-3.0	2904.92
-93.0	-1.0	2874.85
-93.0	1.0	2821.93
-93.0	3.0	2778.12
-93.0	5.0	2897.12
-93.0	7.0	2913.25
-93.0	9.0	2915.78
-93.0	11.0	2909.7
-93.0	13.0	2926.61
-93.0	15.0	2699.05
-93.0	17.0	2814.72
-93.0	19.0	2754.14
-93.0	21.0	2794.14
-93.0	23.0	2650.6
-93.0	25.0	2623.76
-93.0	27.0	2690.56
-93.0	29.0	2722.08
-93.0	31.0	2715.03
-93.0	33.0	2668.6
-93.0	35.0	2810.12
-93.0	37.0	2914.75
-93.0	39.0	2901.84
-93.0	41.0	2901.75
-93.0	43.0	2874.1
-93.0	45.0	2932.2
-93.0	47.0	2890.75
-93.0	49.0	2881.22
-93.0	51.0	2822.34
-93.0	53.0	2720.08
-93.0	55.0	2765.77
-93.0	57.0	2829.84
-93.0	59.0	2869.89
-93.0	61.0	2841.55
-93.0	63.0	2840.61
-93.0	65.0	2866.15
-93.0	67.0	2872.2
-93.0	69.0	2867.01
-93.0	71.0	2894.83
-93.0	73.0	2868.87
-93.0	75.0	2844.38
-93.0	77.0	2831.48
-93.0	79.0	2788.61
-93.0	81.0	2774.64
-93.0	83.0	2823.68
-93.0	85.0	2811.44
-93.0	87.0	2732.48
-93.0	89.0	2732.48
-91.0	-89.0	2837.49
-91.0	-87.0	2837.49
-91.0	-85.0	2808.98
-91.0	-83.0	2819.6
-91.0	-81.0	2814.47
-91.0	-79.0	2831.13
-91.0	-77.0	2808.57
-91.0	-75.0	2818.94
-91.0	-73.0	2862.69
-91.0	-71.0	2829.43
-91.0	-69.0	2758.79
-91.0	-67.0	2847.66
-91.0	-65.0	2836.63
-91.0	-63.0	2891.91
-91.0	-61.0	2916.93
-91.0	-59.0	2944.34
-91.0	-57.0	2963.99
-91.0	-55.0	2962.16
-91.0	-53.0	2972.09
-91.0	-51.0	2975.78
-91.0	-49.0	2985.47
-91.0	-47.0	2954.74
-91.0	-45.0	2976.28
-91.0	-43.0	2956.52
-91.0	-41.0	2847.42
-91.0	-39.0	2784.64
-91.0	-37.0	2905.85
-91.0	-35.0	2952.67
-91.0	-33.0	2957.95
-91.0	-31.0	2927.8
-91.0	-29.0	2930.01
-91.0	-27.0	2948.82
-91.0	-25.0	2918.91
-91.0	-23.0	2971.32
-91.0	-21.0	2974.3
-91.0	-19.0	2982.09
-91.0	-17.0	2982.8
-91.0	-15.0	2953.07
-91.0	-13.0	2945.87
-91.0	-11.0	2954.01
-91.0	-9.0	2957.28
-91.0	-7.0	2958.91
-91.0	-5.0	2939.99
-91.0	-3.0	2890.99
-91.0	-1.0	2836.6
-91.0	1.0	2839.22
-91.0	3.0	2770.4
-91.0	5.0	2873.19
-91.0	7.0	2903.87
-91.0	9.0	2905.19
-91.0	11.0	2893.55
-91.0	13.0	2793.98
-91.0	15.0	2741.89
-91.0	17.0	2750.14
-91.0	19.0	2733.69
-91.0	21.0	2730.01
-91.0	23.0	2773.14
-91.0	25.0	2627.33
-91.0	27.0	2625.89
-91.0	29.0	2666.14
-91.0	31.0	2735.09
-91.0	33.0	2704.25
-91.0	35.0	2804.38
-91.0	37.0	2890.74
-91.0	39.0	2894.99
-91.0	41.0	2872.09
-91.0	43.0	2864.61
-91.0	45.0	2896.18
-91.0	47.0	2879.43
-91.0	49.0	2856.88
-91.0	51.0	2797.11
-91.0	53.0	2757.06
-91.0	55.0	2836.21
-91.0	57.0	2854.98
-91.0	59.0	2832.29
-91.0	61.0	2839.49
-91.0	63.0	2839.68
-91.0	65.0	2853.83
-91.0	67.0	2869.19
-91.0	69.0	2862.44
-91.0	71.0	2882.14
-91.0	73.0	2876.11
-91.0	75.0	2817.38
-91.0	77.0	2820.33
-91.0	79.0	2753.12
-91.0	81.0	2795.59
-91.0	83.0	2764.39
-91.0	85.0	2811.94
-91.0	87.0	2717.84
-91.0	89.0	2717.84
-89.0	-89.0	2833.17
-89.0	-87.0	2833.17
-89.0	-85.0	2826.72
-89.0	-83.0	2824.74
-89.0	-81.0	2817.48
-89.0	-79.0	2841.42
-89.0	-77.0	2822.91
-89.0	-75.0	2816.71
-89.0	-73.0	2855.93
-89.0	-71.0	2827.02
-89.0	-69.0	2766.66
-89.0	-67.0	2850.62
-89.0	-65.0	2881.57
-89.0	-63.0	2897.71
-89.0	-61.0	2915.36
-89.0	-59.0	2946.2
-89.0	-57.0	2985.32
-89.0	-55.0	2958.56
-89.0	-53.0	2968.02
-89.0	-51.0	2964.16
-89.0	-49.0	2978.0
-89.0	-47.0	2949.19
-89.0	-45.0	2948.86
-89.0	-43.0	2933.85
-89.0	-41.0	2873.04
-89.0	-39.0	2880.17
-89.0	-37.0	2950.87
-89.0	-35.0	2966.43
-89.0	-33.0	2955.97
-89.0	-31.0	2955.3
-89.0	-29.0	2937.06
-89.0	-27.0	2945.99
-89.0	-25.0	2927.35
-89.0	-23.0	2970.76
-89.0	-21.0	2980.3
-89.0	-19.0	2979.33
-89.0	-17.0	2984.93
-89.0	-15.0	2966.68
-89.0	-13.0	2956.44
-89.0	-11.0	2961.67
-89.0	-9.0	2960.64
-89.0	-7.0	2944.15
-89.0	-5.0	2920.23
-89.0	-3.0	2876.7
-89.0	-1.0	2811.76
-89.0	1.0	2762.47
-89.0	3.0	2833.65
-89.0	5.0	2868.78
-89.0	7.0	2884.17
-89.0	9.0	2880.34
-89.0	11.0	2946.19
-89.0	13.0	2745.26
-89.0	15.0	2823.23
-89.0	17.0	2766.35
-89.0	19.0	2697.86
-89.0	21.0	2653.06
-89.0	23.0	2758.55
-89.0	25.0	2781.68
-89.0	27.0	2624.02
-89.0	29.0	2685.01
-89.0	31.0	2797.82
-89.0	33.0	2825.32
-89.0	35.0	2845.8
-89.0	37.0	2899.48
-89.0	39.0	2895.06
-89.0	41.0	2918.83
-89.0	43.0	2839.43
-89.0	45.0	2836.12
-89.0	47.0	2913.82
-89.0	49.0	2889.64
-89.0	51.0	2799.81
-89.0	53.0	2795.01
-89.0	55.0	2840.58
-89.0	57.0	2871.3
-89.0	59.0	2862.43
-89.0	61.0	2871.04
-89.0	63.0	2843.14
-89.0	65.0	2842.23
-89.0	67.0	2856.03
-89.0	69.0	2863.73
-89.0	71.0	2873.8
-89.0	73.0	2874.47
-89.0	75.0	2819.38
-89.0	77.0	2835.5
-89.0	79.0	2758.2
-89.0	81.0	2788.33
-89.0	83.0	2778.71
-89.0	85.0	2802.4
-89.0	87.0	2719.12
-89.0	89.0	2719.12
-87.0	-89.0	2826.7
-87.0	-87.0	2826.7
-87.0	-85.0	2847.35
-87.0	-83.0	2834.26
-87.0	-81.0	2822.75
-87.0	-79.0	2803.44
-87.0	-77.0	2819.79
-87.0	-75.0	2801.54
-87.0	-73.0	2855.8
-87.0	-71.0	2806.5
-87.0	-69.0	2799.25
-87.0	-67.0	2821.11
-87.0	-65.0	2853.84
-87.0	-63.0	2890.27
-87.0	-61.0	2897.65
-87.0	-59.0	2957.33
-87.0	-57.0	2985.14
-87.0	-55.0	2982.59
-87.0	-53.0	2954.39
-87.0	-51.0	2935.25
-87.0	-49.0	2961.8
-87.0	-47.0	2956.75
-87.0	-45.0	2917.89
-87.0	-43.0	2894.93
-87.0	-41.0	2883.97
-87.0	-39.0	2921.76
-87.0	-37.0	2968.79
-87.0	-35.0	2973.07
-87.0	-33.0	2967.68
-87.0	-31.0	2959.0
-87.0	-29.0	2962.98
-87.0	-27.0	2926.75
-87.0	-25.0	2924.25
-87.0	-23.0	2962.13
-87.0	-21.0	2973.97
-87.0	-19.0	2978.09
-87.0	-17.0	2977.23
-87.0	-15.0	2977.91
-87.0	-13.0	2944.54
-87.0	-11.0	2957.65
-87.0	-9.0	2953.78
-87.0	-7.0	2927.69
-87.0	-5.0	2900.77
-87.0	-3.0	2886.96
-87.0	-1.0	2859.52
-87.0	1.0	2738.76
-87.0	3.0	2800.9
-87.0	5.0	2828.39
-87.0	7.0	2865.73
-87.0	9.0	2917.92
-87.0	11.0	2884.51
-87.0	13.0	2778.34
-87.0	15.0	2790.85
-87.0	17.0	2921.49
-87.0	19.0	2821.41
-87.0	21.0	2743.47
-87.0	23.0	2777.85
-87.0	25.0	2812.64
-87.0	27.0	2653.71
-87.0	29.0	2740.73
-87.0	31.0	2844.2
-87.0	33.0	2869.3
-87.0	35.0	2915.72
-87.0	37.0	2917.27
-87.0	39.0	2898.67
-87.0	41.0	2935.92
-87.0	43.0	2877.23
-87.0	45.0	2861.29
-87.0	47.0	2940.72
-87.0	49.0	2910.68
-87.0	51.0	2854.27
-87.0	53.0	2832.39
-87.0	55.0	2849.61
-87.0	57.0	2877.05
-87.0	59.0	2867.05
-87.0	61.0	2876.97
-87.0	63.0	2861.66
-87.0	65.0	2878.02
-87.0	67.0	2870.99
-87.0	69.0	2870.23
-87.0	71.0	2884.46
-87.0	73.0	2874.38
-87.0	75.0	2831.81
-87.0	77.0	2831.21
-87.0	79.0	2787.3
-87.0	81.0	2782.15
-87.0	83.0	2812.81
-87.0	85.0	2777.73
-87.0	87.0	2695.53
-87.0	89.0	2695.53
-85.0	-89.0	2823.56
-85.0	-87.0	2823.56
-85.0	-85.0	2856.28
-85.0	-83.0	2842.5
-85.0	-81.0	2832.73
-85.0	-79.0	2833.04
-85.0	-77.0	2854.49
-85.0	-75.0	2804.59
-85.0	-73.0	2853.18
-85.0	-71.0	2802.12
-85.0	-69.0	2786.76
-85.0	-67.0	2822.94
-85.0	-65.0	2853.5
-85.0	-63.0	2882.05
-85.0	-61.0	2921.92
-85.0	-59.0	2960.4
-85.0	-57.0	2973.9
-85.0	-55.0	2964.52
-85.0	-53.0	2969.16
-85.0	-51.0	2920.31
-85.0	-49.0	2952.01
-85.0	-47.0	2932.46
-85.0	-45.0	2915.5
-85.0	-43.0	2840.78
-85.0	-41.0	2834.1
-85.0	-39.0	2961.02
-85.0	-37.0	2978.23
-85.0	-35.0	2977.63
-85.0	-33.0	2970.42
-85.0	-31.0	2970.06
-85.0	-29.0	2959.49
-85.0	-27.0	2950.61
-85.0	-25.0	2901.28
-85.0	-23.0	2938.5
-85.0	-21.0	2960.67
-85.0	-19.0	2974.61
-85.0	-17.0	2976.33
-85.0	-15.0	2981.72
-85.0	-13.0	2962.2
-85.0	-11.0	2951.27
-85.0	-9.0	2948.7
-85.0	-7.0	2922.12
-85.0	-5.0	2897.41
-85.0	-3.0	2878.48
-85.0	-1.0	2889.89
-85.0	1.0	2784.24
-85.0	3.0	2745.13
-85.0	5.0	2798.69
-85.0	7.0	2840.59
-85.0	9.0	2932.15
-85.0	11.0	2845.98
-85.0	13.0	2811.42
-85.0	15.0	2784.51
-85.0	17.0	2883.98
-85.0	19.0	2804.66
-85.0	21.0	2875.63
-85.0	23.0	2840.49
-85.0	25.0	2783.63
-85.0	27.0	2757.95
-85.0	29.0	2759.72
-85.0	31.0	2802.55
-85.0	33.0	2898.83
-85.0	35.0	2928.97
-85.0	37.0	2878.78
-85.0	39.0	2873.63
-85.0	41.0	2895.03
-85.0	43.0	2895.04
-85.0	45.0	2822.97
-85.0	47.0	2946.55
-85.0	49.0	2891.32
-85.0	51.0	2861.46
-85.0	53.0	2879.76
-85.0	55.0	2866.45
-85.0	57.0	2885.64
-85.0	59.0	2833.43
-85.0	61.0	2841.87
-85.0	63.0	2868.75
-85.0	65.0	2877.43
-85.0	67.0	2857.1
-85.0	69.0	2875.78
-85.0	71.0	2896.86
-85.0	73.0	2899.27
-85.0	75.0	2836.06
-85.0	77.0	2830.88
-85.0	79.0	2796.11
-85.0	81.0	2778.44
-85.0	83.0	2832.17
-85.0	85.0	2760.62
-85.0	87.0	2693.95
-85.0	89.0	2693.95
-83.0	-89.0	2819.3
-83.0	-87.0	2819.3
-83.0	-85.0	2842.53
-83.0	-83.0	2850.81
-83.0	-81.0	2833.82
-83.0	-79.0	2899.28
-83.0	-77.0	2857.52
-83.0	-75.0	2820.88
-83.0	-73.0	2865.73
-83.0	-71.0	2796.52
-83.0	-69.0	2768.05
-83.0	-67.0	2800.27
-83.0	-65.0	2864.48
-83.0	-63.0	2902.02
-83.0	-61.0	2927.31
-83.0	-59.0	2957.55
-83.0	-57.0	2962.32
-83.0	-55.0	2977.15
-83.0	-53.0	2945.57
-83.0	-51.0	2925.27
-83.0	-49.0	2937.61
-83.0	-47.0	2866.66
-83.0	-45.0	2829.39
-83.0	-43.0	2735.44
-83.0	-41.0	2871.57
-83.0	-39.0	2963.62
-83.0	-37.0	2967.09
-83.0	-35.0	2964.88
-83.0	-33.0	2962.52
-83.0	-31.0	2967.38
-83.0	-29.0	2969.39
-83.0	-27.0	2953.49
-83.0	-25.0	2906.2
-83.0	-23.0	2887.8
-83.0	-21.0	2914.06
-83.0	-19.0	2953.58
-83.0	-17.0	2956.6
-83.0	-15.0	2965.53
-83.0	-13.0	2970.11
-83.0	-11.0	2942.86
-83.0	-9.0	2930.96
-83.0	-7.0	2909.02
-83.0	-5.0	2885.63
-83.0	-3.0	2860.43
-83.0	-1.0	2905.91
-83.0	1.0	2834.6
-83.0	3.0	2721.24
-83.0	5.0	2789.26
-83.0	7.0	2832.13
-83.0	9.0	2825.33
-83.0	11.0	2891.78
-83.0	13.0	2797.05
-83.0	15.0	2745.89
-83.0	17.0	2820.81
-83.0	19.0	2669.35
-83.0	21.0	2825.7
-83.0	23.0	2763.15
-83.0	25.0	2767.25
-83.0	27.0	2832.6
-83.0	29.0	2822.94
-83.0	31.0	2809.72
-83.0	33.0	2832.0
-83.0	35.0	2890.89
-83.0	37.0	2906.66
-83.0	39.0	2870.4
-83.0	41.0	2939.06
-83.0	43.0	2910.91
-83.0	45.0	2879.25
-83.0	47.0	2878.31
-83.0	49.0	2929.3
-83.0	51.0	2882.26
-83.0	53.0	2899.39
-83.0	55.0	2882.98
-83.0	57.0	2878.02
-83.0	59.0	2829.24
-83.0	61.0	2829.71
-83.0	63.0	2862.86
-83.0	65.0	2888.03
-83.0	67.0	2861.23
-83.0	69.0	2878.38
-83.0	71.0	2892.16
-83.0	73.0	2882.88
-83.0	75.0	2822.23
-83.0	77.0	2847.4
-83.0	79.0	2827.43
-83.0	81.0	2849.31
-83.0	83.0	2855.7
-83.0	85.0	2772.18
-83.0	87.0	2694.81
-83.0	89.0	2694.81
-81.0	-89.0	2817.08
-81.0	-87.0	2817.08
-81.0	-85.0	2838.43
-81.0	-83.0	2853.86
-81.0	-81.0	2851.51
-81.0	-79.0	2869.82
-81.0	-77.0	2843.02
-81.0	-75.0	2828.59
-81.0	-73.0	2867.36
-81.0	-71.0	2789.63
-81.0	-69.0	2749.51
-81.0	-67.0	2788.2
-81.0	-65.0	2862.42
-81.0	-63.0	2896.67
-81.0	-61.0	2920.92
-81.0	-59.0	2957.24
-81.0	-57.0	2956.82
-81.0	-55.0	2952.19
-81.0	-53.0	2926.19
-81.0	-51.0	2898.2
-81.0	-49.0	2905.87
-81.0	-47.0	2874.95
-81.0	-45.0	2810.07
-81.0	-43.0	2814.4
-81.0	-41.0	2903.39
-81.0	-39.0	2953.6
-81.0	-37.0	2969.97
-81.0	-35.0	2958.72
-81.0	-33.0	2948.78
-81.0	-31.0	2964.28
-81.0	-29.0	2963.76
-81.0	-27.0	2943.76
-81.0	-25.0	2949.97
-81.0	-23.0	2936.32
-81.0	-21.0	2836.35
-81.0	-19.0	2903.05
-81.0	-17.0	2933.29
-81.0	-15.0	2941.27
-81.0	-13.0	2935.95
-81.0	-11.0	2933.27
-81.0	-9.0	2920.47
-81.0	-7.0	2858.5
-81.0	-5.0	2881.81
-81.0	-3.0	2809.34
-81.0	-1.0	2838.18
-81.0	1.0	2832.96
-81.0	3.0	2777.64
-81.0	5.0	2823.25
-81.0	7.0	2741.46
-81.0	9.0	2872.71
-81.0	11.0	2980.5
-81.0	13.0	2862.61
-81.0	15.0	2785.15
-81.0	17.0	2745.9
-81.0	19.0	2796.83
-81.0	21.0	2825.15
-81.0	23.0	2813.42
-81.0	25.0	2800.91
-81.0	27.0	2822.69
-81.0	29.0	2810.3
-81.0	31.0	2800.12
-81.0	33.0	2810.68
-81.0	35.0	2866.19
-81.0	37.0	2891.77
-81.0	39.0	2893.83
-81.0	41.0	2931.1
-81.0	43.0	2900.92
-81.0	45.0	2902.75
-81.0	47.0	2814.59
-81.0	49.0	2885.53
-81.0	51.0	2886.64
-81.0	53.0	2889.38
-81.0	55.0	2885.44
-81.0	57.0	2874.44
-81.0	59.0	2830.12
-81.0	61.0	2848.38
-81.0	63.0	2874.0
-81.0	65.0	2910.79
-81.0	67.0	2865.59
-81.0	69.0	2878.21
-81.0	71.0	2884.09
-81.0	73.0	2882.63
-81.0	75.0	2829.63
-81.0	77.0	2824.06
-81.0	79.0	2855.4
-81.0	81.0	2865.7
-81.0	83.0	2850.13
-81.0	85.0	2776.54
-81.0	87.0	2703.49
-81.0	89.0	2703.49
-79.0	-89.0	2815.99
-79.0	-87.0	2815.99
-79.0	-85.0	2844.1
-79.0	-83.0	2854.81
-79.0	-81.0	2872.17
-79.0	-79.0	2875.27
-79.0	-77.0	2828.54
-79.0	-75.0	2848.89
-79.0	-73.0	2856.77
-79.0	-71.0	2800.34
-79.0	-69.0	2771.06
-79.0	-67.0	2776.16
-79.0	-65.0	2864.27
-79.0	-63.0	2907.68
-79.0	-61.0	2938.5
-79.0	-59.0	2951.51
-79.0	-57.0	2949.82
-79.0	-55.0	2923.28
-79.0	-53.0	2882.55
-79.0	-51.0	2853.66
-79.0	-49.0	2841.22
-79.0	-47.0	2852.23
-79.0	-45.0	2775.61
-79.0	-43.0	2845.41
-79.0	-41.0	2905.22
-79.0	-39.0	2953.37
-79.0	-37.0	2959.49
-79.0	-35.0	2955.37
-79.0	-33.0	2922.33
-79.0	-31.0	2953.06
-79.0	-29.0	2942.71
-79.0	-27.0	2930.14
-79.0	-25.0	2951.14
-79.0	-23.0	2952.17
-79.0	-21.0	2932.57
-79.0	-19.0	2864.91
-79.0	-17.0	2842.06
-79.0	-15.0	2899.62
-79.0	-13.0	2919.25
-79.0	-11.0	2809.98
-79.0	-9.0	2828.5
-79.0	-7.0	2831.34
-79.0	-5.0	2849.95
-79.0	-3.0	2833.56
-79.0	-1.0	2864.77
-79.0	1.0	2863.25
-79.0	3.0	2824.72
-79.0	5.0	2883.67
-79.0	7.0	2941.97
-79.0	9.0	2862.73
-79.0	11.0	2966.5
-79.0	13.0	2906.71
-79.0	15.0	2795.85
-79.0	17.0	2753.34
-79.0	19.0	2752.51
-79.0	21.0	2795.18
-79.0	23.0	2734.28
-79.0	25.0	2793.28
-79.0	27.0	2763.67
-79.0	29.0	2738.06
-79.0	31.0	2720.41
-79.0	33.0	2770.89
-79.0	35.0	2855.71
-79.0	37.0	2885.02
-79.0	39.0	2878.12
-79.0	41.0	2860.18
-79.0	43.0	2884.0
-79.0	45.0	2859.51
-79.0	47.0	2836.33
-79.0	49.0	2852.28
-79.0	51.0	2867.01
-79.0	53.0	2872.37
-79.0	55.0	2863.81
-79.0	57.0	2850.81
-79.0	59.0	2883.0
-79.0	61.0	2875.51
-79.0	63.0	2883.07
-79.0	65.0	2912.73
-79.0	67.0	2859.76
-79.0	69.0	2864.62
-79.0	71.0	2872.17
-79.0	73.0	2847.47
-79.0	75.0	2869.28
-79.0	77.0	2815.03
-79.0	79.0	2844.48
-79.0	81.0	2892.07
-79.0	83.0	2872.3
-79.0	85.0	2784.12
-79.0	87.0	2691.02
-79.0	89.0	2691.02
-77.0	-89.0	2819.51
-77.0	-87.0	2819.51
-77.0	-85.0	2849.63
-77.0	-83.0	2865.7
-77.0	-81.0	2891.01
-77.0	-79.0	2893.8
-77.0	-77.0	2859.22
-77.0	-75.0	2864.03
-77.0	-73.0	2860.02
-77.0	-71.0	2821.78
-77.0	-69.0	2794.61
-77.0	-67.0	2743.15
-77.0	-65.0	2852.71
-77.0	-63.0	2900.6
-77.0	-61.0	2920.09
-77.0	-59.0	2946.16
-77.0	-57.0	2943.68
-77.0	-55.0	2877.87
-77.0	-53.0	2847.06
-77.0	-51.0	2797.05
-77.0	-49.0	2793.92
-77.0	-47.0	2780.37
-77.0	-45.0	2743.27
-77.0	-43.0	2830.05
-77.0	-41.0	2886.64
-77.0	-39.0	2920.69
-77.0	-37.0	2932.17
-77.0	-35.0	2937.73
-77.0	-33.0	2930.72
-77.0	-31.0	2945.23
-77.0	-29.0	2943.01
-77.0	-27.0	2907.34
-77.0	-25.0	2933.64
-77.0	-23.0	2940.8
-77.0	-21.0	2932.51
-77.0	-19.0	2917.6
-77.0	-17.0	2818.92
-77.0	-15.0	2836.91
-77.0	-13.0	2827.11
-77.0	-11.0	2862.52
-77.0	-9.0	2837.48
-77.0	-7.0	2840.82
-77.0	-5.0	2840.92
-77.0	-3.0	2842.99
-77.0	-1.0	2858.38
-77.0	1.0	2829.05
-77.0	3.0	2825.48
-77.0	5.0	2812.6
-77.0	7.0	2800.0
-77.0	9.0	2772.06
-77.0	11.0	2778.16
-77.0	13.0	2978.28
-77.0	15.0	2969.68
-77.0	17.0	2787.67
-77.0	19.0	2754.42
-77.0	21.0	2657.67
-77.0	23.0	2698.32
-77.0	25.0	2680.49
-77.0	27.0	2720.73
-77.0	29.0	2687.95
-77.0	31.0	2672.09
-77.0	33.0	2760.95
-77.0	35.0	2860.69
-77.0	37.0	2827.6
-77.0	39.0	2786.81
-77.0	41.0	2824.41
-77.0	43.0	2904.97
-77.0	45.0	2871.98
-77.0	47.0	2834.47
-77.0	49.0	2851.1
-77.0	51.0	2846.61
-77.0	53.0	2865.99
-77.0	55.0	2854.78
-77.0	57.0	2863.14
-77.0	59.0	2889.85
-77.0	61.0	2894.06
-77.0	63.0	2887.49
-77.0	65.0	2902.81
-77.0	67.0	2860.3
-77.0	69.0	2870.13
-77.0	71.0	2873.06
-77.0	73.0	2860.23
-77.0	75.0	2741.61
-77.0	77.0	2829.81
-77.0	79.0	2866.42
-77.0	81.0	2872.29
-77.0	83.0	2849.83
-77.0	85.0	2795.13
-77.0	87.0	2698.8
-77.0	89.0	2698.8
-75.0	-89.0	2822.81
-75.0	-87.0	2822.81
-75.0	-85.0	2853.83
-75.0	-83.0	2868.5
-75.0	-81.0	2898.87
-75.0	-79.0	2904.42
-75.0	-77.0	2863.25
-75.0	-75.0	2847.73
-75.0	-73.0	2839.47
-75.0	-71.0	2802.6
-75.0	-69.0	2779.46
-75.0	-67.0	2738.91
-75.0	-65.0	2836.92
-75.0	-63.0	2884.52
-75.0	-61.0	2892.84
-75.0	-59.0	2928.81
-75.0	-57.0	2919.71
-75.0	-55.0	2847.96
-75.0	-53.0	2832.95
-75.0	-51.0	2838.89
-75.0	-49.0	2822.7
-75.0	-47.0	2856.08
-75.0	-45.0	2847.88
-75.0	-43.0	2815.46
-75.0	-41.0	2827.08
-75.0	-39.0	2812.42
-75.0	-37.0	2813.49
-75.0	-35.0	2907.66
-75.0	-33.0	2919.58
-75.0	-31.0	2931.61
-75.0	-29.0	2929.21
-75.0	-27.0	2913.09
-75.0	-25.0	2874.25
-75.0	-23.0	2921.84
-75.0	-21.0	2927.0
-75.0	-19.0	2913.3
-75.0	-17.0	2905.49
-75.0	-15.0	2863.38
-75.0	-13.0	2851.83
-75.0	-11.0	2871.62
-75.0	-9.0	2872.16
-75.0	-7.0	2860.21
-75.0	-5.0	2843.83
-75.0	-3.0	2860.68
-75.0	-1.0	2858.64
-75.0	1.0	2881.25
-75.0	3.0	2943.43
-75.0	5.0	2868.17
-75.0	7.0	2779.8
-75.0	9.0	2721.31
-75.0	11.0	2676.88
-75.0	13.0	2806.04
-75.0	15.0	2968.74
-75.0	17.0	2821.18
-75.0	19.0	2833.23
-75.0	21.0	2659.88
-75.0	23.0	2591.58
-75.0	25.0	2727.8
-75.0	27.0	2773.31
-75.0	29.0	2771.23
-75.0	31.0	2675.11
-75.0	33.0	2685.59
-75.0	35.0	2730.11
-75.0	37.0	2735.05
-75.0	39.0	2773.27
-75.0	41.0	2843.6
-75.0	43.0	2849.78
-75.0	45.0	2842.97
-75.0	47.0	2827.15
-75.0	49.0	2817.06
-75.0	51.0	2825.15
-75.0	53.0	2882.43
-75.0	55.0	2878.47
-75.0	57.0	2855.81
-75.0	59.0	2865.94
-75.0	61.0	2868.26
-75.0	63.0	2916.7
-75.0	65.0	2915.21
-75.0	67.0	2868.77
-75.0	69.0	2879.42
-75.0	71.0	2861.89
-75.0	73.0	2869.76
-75.0	75.0	2703.22
-75.0	77.0	2851.48
-75.0	79.0	2901.54
-75.0	81.0	2833.26
-75.0	83.0	2878.07
-75.0	85.0	2796.49
-75.0	87.0	2629.25
-75.0	89.0	2629.25
-73.0	-89.0	2823.61
-73.0	-87.0	2823.61
-73.0	-85.0	2857.64
-73.0	-83.0	2861.89
-73.0	-81.0	2891.82
-73.0	-79.0	2903.2
-73.0	-77.0	2876.85
-73.0	-75.0	2816.58
-73.0	-73.0	2826.56
-73.0	-71.0	2814.08
-73.0	-69.0	2808.42
-73.0	-67.0	2829.21
-73.0	-65.0	2808.16
-73.0	-63.0	2859.47
-73.0	-61.0	2880.59
-73.0	-59.0	2917.4
-73.0	-57.0	2904.18
-73.0	-55.0	2841.88
-73.0	-53.0	2817.19
-73.0	-51.0	2812.29
-73.0	-49.0	2824.61
-73.0	-47.0	2837.62
-73.0	-45.0	2843.02
-73.0	-43.0	2849.13
-73.0	-41.0	2823.61
-73.0	-39.0	2842.55
-73.0	-37.0	2848.08
-73.0	-35.0	2845.6
-73.0	-33.0	2818.21
-73.0	-31.0	2858.97
-73.0	-29.0	2913.63
-73.0	-27.0	2864.0
-73.0	-25.0	2859.73
-73.0	-23.0	2858.15
-73.0	-21.0	2871.77
-73.0	-19.0	2876.61
-73.0	-17.0	2886.17
-73.0	-15.0	2818.34
-73.0	-13.0	2889.82
-73.0	-11.0	2863.23
-73.0	-9.0	2854.78
-73.0	-7.0	2869.15
-73.0	-5.0	2872.26
-73.0	-3.0	2888.76
-73.0	-1.0	2893.35
-73.0	1.0	2902.61
-73.0	3.0	2902.5
-73.0	5.0	2843.0
-73.0	7.0	2790.71
-73.0	9.0	2825.32
-73.0	11.0	2810.23
-73.0	13.0	2774.66
-73.0	15.0	2845.39
-73.0	17.0	2874.51
-73.0	19.0	2657.14
-73.0	21.0	2642.64
-73.0	23.0	2683.82
-73.0	25.0	2866.56
-73.0	27.0	2804.52
-73.0	29.0	2763.78
-73.0	31.0	2788.39
-73.0	33.0	2761.92
-73.0	35.0	2685.22
-73.0	37.0	2642.01
-73.0	39.0	2710.5
-73.0	41.0	2795.48
-73.0	43.0	2811.47
-73.0	45.0	2828.79
-73.0	47.0	2825.07
-73.0	49.0	2810.6
-73.0	51.0	2822.6
-73.0	53.0	2923.57
-73.0	55.0	2897.66
-73.0	57.0	2866.58
-73.0	59.0	2874.41
-73.0	61.0	2870.5
-73.0	63.0	2948.41
-73.0	65.0	2915.77
-73.0	67.0	2869.84
-73.0	69.0	2896.75
-73.0	71.0	2843.29
-73.0	73.0	2737.7
-73.0	75.0	2687.95
-73.0	77.0	2834.05
-73.0	79.0	2912.85
-73.0	81.0	2855.34
-73.0	83.0	2873.38
-73.0	85.0	2813.79
-73.0	87.0	2592.47
-73.0	89.0	2592.47
-71.0	-89.0	2816.82
-71.0	-87.0	2816.82
-71.0	-85.0	2863.72
-71.0	-83.0	2850.72
-71.0	-81.0	2882.82
-71.0	-79.0	2902.16
-71.0	-77.0	2898.22
-71.0	-75.0	2821.58
-71.0	-73.0	2810.69
-71.0	-71.0	2804.05
-71.0	-69.0	2787.84
-71.0	-67.0	2843.17
-71.0	-65.0	2793.34
-71.0	-63.0	2831.35
-71.0	-61.0	2883.32
-71.0	-59.0	2898.3
-71.0	-57.0	2894.35
-71.0	-55.0	2832.02
-71.0	-53.0	2774.6
-71.0	-51.0	2797.61
-71.0	-49.0	2825.87
-71.0	-47.0	2823.6
-71.0	-45.0	2823.19
-71.0	-43.0	2834.54
-71.0	-41.0	2815.41
-71.0	-39.0	2832.54
-71.0	-37.0	2836.29
-71.0	-35.0	2837.12
-71.0	-33.0	2818.8
-71.0	-31.0	2874.91
-71.0	-29.0	2858.02
-71.0	-27.0	2854.49
-71.0	-25.0	2936.22
-71.0	-23.0	2894.65
-71.0	-21.0	2827.09
-71.0	-19.0	2941.45
-71.0	-17.0	2814.32
-71.0	-15.0	2853.03
-71.0	-13.0	2835.25
-71.0	-11.0	2846.01
-71.0	-9.0	2870.27
-71.0	-7.0	2888.47
-71.0	-5.0	2921.22
-71.0	-3.0	2895.04
-71.0	-1.0	2891.13
-71.0	1.0	2897.04
-71.0	3.0	2889.5
-71.0	5.0	2869.64
-71.0	7.0	2866.74
-71.0	9.0	2833.79
-71.0	11.0	2776.02
-71.0	13.0	2753.35
-71.0	15.0	2890.37
-71.0	17.0	2857.52
-71.0	19.0	2703.96
-71.0	21.0	2652.68
-71.0	23.0	2845.62
-71.0	25.0	2858.94
-71.0	27.0	2852.38
-71.0	29.0	2834.93
-71.0	31.0	2826.37
-71.0	33.0	2822.21
-71.0	35.0	2741.74
-71.0	37.0	2681.46
-71.0	39.0	2641.98
-71.0	41.0	2780.57
-71.0	43.0	2776.35
-71.0	45.0	2802.42
-71.0	47.0	2839.13
-71.0	49.0	2849.66
-71.0	51.0	2844.47
-71.0	53.0	2916.7
-71.0	55.0	2892.97
-71.0	57.0	2856.15
-71.0	59.0	2877.51
-71.0	61.0	2907.81
-71.0	63.0	2957.01
-71.0	65.0	2919.37
-71.0	67.0	2869.11
-71.0	69.0	2880.82
-71.0	71.0	2784.34
-71.0	73.0	2670.32
-71.0	75.0	2713.27
-71.0	77.0	2873.5
-71.0	79.0	2883.09
-71.0	81.0	2876.21
-71.0	83.0	2858.66
-71.0	85.0	2797.94
-71.0	87.0	2601.78
-71.0	89.0	2601.78
-69.0	-89.0	2806.99
-69.0	-87.0	2806.99
-69.0	-85.0	2860.74
-69.0	-83.0	2847.01
-69.0	-81.0	2878.47
-69.0	-79.0	2908.94
-69.0	-77.0	2916.1
-69.0	-75.0	2825.11
-69.0	-73.0	2815.93
-69.0	-71.0	2797.93
-69.0	-69.0	2830.66
-69.0	-67.0	2815.1
-69.0	-65.0	2831.63
-69.0	-63.0	2814.8
-69.0	-61.0	2887.29
-69.0	-59.0	2879.69
-69.0	-57.0	2896.23
-69.0	-55.0	2823.58
-69.0	-53.0	2803.38
-69.0	-51.0	2811.57
-69.0	-49.0	2829.49
-69.0	-47.0	2801.53
-69.0	-45.0	2812.14
-69.0	-43.0	2796.57
-69.0	-41.0	2800.03
-69.0	-39.0	2796.94
-69.0	-37.0	2767.96
-69.0	-35.0	2799.4
-69.0	-33.0	2875.24
-69.0	-31.0	2913.26
-69.0	-29.0	2852.66
-69.0	-27.0	2810.57
-69.0	-25.0	2806.82
-69.0	-23.0	2842.27
-69.0	-21.0	2864.24
-69.0	-19.0	2824.81
-69.0	-17.0	2801.23
-69.0	-15.0	2808.07
-69.0	-13.0	2831.5
-69.0	-11.0	2859.52
-69.0	-9.0	2882.98
-69.0	-7.0	2907.0
-69.0	-5.0	2899.6
-69.0	-3.0	2892.3
-69.0	-1.0	2893.96
-69.0	1.0	2894.44
-69.0	3.0	2888.29
-69.0	5.0	2857.56
-69.0	7.0	2893.85
-69.0	9.0	2841.69
-69.0	11.0	2742.17
-69.0	13.0	2795.41
-69.0	15.0	2888.01
-69.0	17.0	2906.48
-69.0	19.0	2750.95
-69.0	21.0	2705.78
-69.0	23.0	2858.56
-69.0	25.0	2882.19
-69.0	27.0	2872.4
-69.0	29.0	2864.48
-69.0	31.0	2830.66
-69.0	33.0	2838.95
-69.0	35.0	2800.81
-69.0	37.0	2734.22
-69.0	39.0	2633.39
-69.0	41.0	2761.84
-69.0	43.0	2852.08
-69.0	45.0	2835.87
-69.0	47.0	2852.82
-69.0	49.0	2887.05
-69.0	51.0	2886.76
-69.0	53.0	2887.91
-69.0	55.0	2874.4
-69.0	57.0	2851.84
-69.0	59.0	2887.96
-69.0	61.0	2916.37
-69.0	63.0	2936.72
-69.0	65.0	2905.48
-69.0	67.0	2866.07
-69.0	69.0	2879.3
-69.0	71.0	2818.6
-69.0	73.0	2598.99
-69.0	75.0	2781.59
-69.0	77.0	2884.57
-69.0	79.0	2887.75
-69.0	81.0	2880.7
-69.0	83.0	2891.72
-69.0	85.0	2807.99
-69.0	87.0	2624.03
-69.0	89.0	2624.03
-67.0	-89.0	2801.51
-67.0	-87.0	2801.51
-67.0	-85.0	2864.64
-67.0	-83.0	2849.47
-67.0	-81.0	2874.12
-67.0	-79.0	2914.77
-67.0	-77.0	2905.39
-67.0	-75.0	2820.82
-67.0	-73.0	2813.83
-67.0	-71.0	2820.85
-67.0	-69.0	2817.92
-67.0	-67.0	2826.92
-67.0	-65.0	2858.61
-67.0	-63.0	2790.14
-67.0	-61.0	2865.25
-67.0	-59.0	2877.53
-67.0	-57.0	2841.13
-67.0	-55.0	2811.97
-67.0	-53.0	2814.15
-67.0	-51.0	2824.02
-67.0	-49.0	2831.64
-67.0	-47.0	2802.92
-67.0	-45.0	2819.49
-67.0	-43.0	2797.46
-67.0	-41.0	2791.07
-67.0	-39.0	2787.77
-67.0	-37.0	2806.04
-67.0	-35.0	2799.3
-67.0	-33.0	2815.33
-67.0	-31.0	2841.62
-67.0	-29.0	2800.57
-67.0	-27.0	2827.89
-67.0	-25.0	2801.05
-67.0	-23.0	2809.42
-67.0	-21.0	2867.57
-67.0	-19.0	2850.0
-67.0	-17.0	2856.62
-67.0	-15.0	2831.11
-67.0	-13.0	2805.7
-67.0	-11.0	2871.05
-67.0	-9.0	2879.29
-67.0	-7.0	2892.01
-67.0	-5.0	2893.68
-67.0	-3.0	2884.54
-67.0	-1.0	2890.33
-67.0	1.0	2889.65
-67.0	3.0	2866.36
-67.0	5.0	2846.34
-67.0	7.0	2867.67
-67.0	9.0	2861.99
-67.0	11.0	2769.18
-67.0	13.0	2822.23
-67.0	15.0	2863.48
-67.0	17.0	2950.66
-67.0	19.0	2872.11
-67.0	21.0	2832.94
-67.0	23.0	2925.3
-67.0	25.0	2903.73
-67.0	27.0	2881.43
-67.0	29.0	2864.92
-67.0	31.0	2834.52
-67.0	33.0	2828.11
-67.0	35.0	2803.28
-67.0	37.0	2764.12
-67.0	39.0	2701.34
-67.0	41.0	2687.18
-67.0	43.0	2804.71
-67.0	45.0	2862.94
-67.0	47.0	2859.88
-67.0	49.0	2905.68
-67.0	51.0	2893.69
-67.0	53.0	2929.39
-67.0	55.0	2883.59
-67.0	57.0	2873.7
-67.0	59.0	2921.64
-67.0	61.0	2922.79
-67.0	63.0	2914.94
-67.0	65.0	2922.11
-67.0	67.0	2863.59
-67.0	69.0	2899.32
-67.0	71.0	2812.43
-67.0	73.0	2644.17
-67.0	75.0	2857.79
-67.0	77.0	2892.72
-67.0	79.0	2895.44
-67.0	81.0	2894.64
-67.0	83.0	2870.95
-67.0	85.0	2828.76
-67.0	87.0	2612.77
-67.0	89.0	2612.77
-65.0	-89.0	2793.1
-65.0	-87.0	2793.1
-65.0	-85.0	2856.16
-65.0	-83.0	2862.3
-65.0	-81.0	2864.67
-65.0	-79.0	2913.94
-65.0	-77.0	2792.21
-65.0	-75.0	2860.87
-65.0	-73.0	2783.31
-65.0	-71.0	2760.2
-65.0	-69.0	2793.79
-65.0	-67.0	2803.43
-65.0	-65.0	2857.17
-65.0	-63.0	2835.09
-65.0	-61.0	2848.75
-65.0	-59.0	2873.78
-65.0	-57.0	2891.65
-65.0	-55.0	2842.66
-65.0	-53.0	2815.26
-65.0	-51.0	2843.37
-65.0	-49.0	2835.9
-65.0	-47.0	2826.27
-65.0	-45.0	2814.81
-65.0	-43.0	2803.56
-65.0	-41.0	2810.53
-65.0	-39.0	2821.66
-65.0	-37.0	2819.55
-65.0	-35.0	2817.49
-65.0	-33.0	2774.58
-65.0	-31.0	2776.86
-65.0	-29.0	2791.84
-65.0	-27.0	2785.91
-65.0	-25.0	2766.92
-65.0	-23.0	2803.17
-65.0	-21.0	2803.81
-65.0	-19.0	2828.08
-65.0	-17.0	2821.37
-65.0	-15.0	2807.54
-65.0	-13.0	2826.42
-65.0	-11.0	2887.46
-65.0	-9.0	2883.18
-65.0	-7.0	2870.58
-65.0	-5.0	2873.23
-65.0	-3.0	2878.92
-65.0	-1.0	2882.94
-65.0	1.0	2871.67
-65.0	3.0	2850.26
-65.0	5.0	2854.49
-65.0	7.0	2861.35
-65.0	9.0	2879.4
-65.0	11.0	2819.79
-65.0	13.0	2846.49
-65.0	15.0	2779.86
-65.0	17.0	2898.55
-65.0	19.0	2936.2
-65.0	21.0	2863.7
-65.0	23.0	2934.2
-65.0	25.0	2916.65
-65.0	27.0	2898.95
-65.0	29.0	2874.58
-65.0	31.0	2818.13
-65.0	33.0	2791.52
-65.0	35.0	2804.03
-65.0	37.0	2791.88
-65.0	39.0	2767.47
-65.0	41.0	2665.52
-65.0	43.0	2793.36
-65.0	45.0	2861.06
-65.0	47.0	2932.99
-65.0	49.0	2932.9
-65.0	51.0	2914.09
-65.0	53.0	2905.61
-65.0	55.0	2885.87
-65.0	57.0	2888.66
-65.0	59.0	2940.91
-65.0	61.0	2913.5
-65.0	63.0	2894.66
-65.0	65.0	2936.11
-65.0	67.0	2846.02
-65.0	69.0	2875.13
-65.0	71.0	2809.22
-65.0	73.0	2659.32
-65.0	75.0	2904.4
-65.0	77.0	2875.42
-65.0	79.0	2890.84
-65.0	81.0	2901.62
-65.0	83.0	2848.93
-65.0	85.0	2835.77
-65.0	87.0	2624.5
-65.0	89.0	2624.5
-63.0	-89.0	2786.53
-63.0	-87.0	2786.53
-63.0	-85.0	2865.93
-63.0	-83.0	2873.32
-63.0	-81.0	2863.05
-63.0	-79.0	2906.77
-63.0	-77.0	2762.48
-63.0	-75.0	2857.92
-63.0	-73.0	2795.62
-63.0	-71.0	2786.71
-63.0	-69.0	2800.73
-63.0	-67.0	2812.78
-63.0	-65.0	2827.8
-63.0	-63.0	2870.05
-63.0	-61.0	2865.96
-63.0	-59.0	2896.99
-63.0	-57.0	2865.14
-63.0	-55.0	2825.83
-63.0	-53.0	2829.43
-63.0	-51.0	2866.61
-63.0	-49.0	2843.56
-63.0	-47.0	2837.75
-63.0	-45.0	2839.49
-63.0	-43.0	2838.23
-63.0	-41.0	2826.64
-63.0	-39.0	2817.62
-63.0	-37.0	2827.61
-63.0	-35.0	2833.82
-63.0	-33.0	2860.44
-63.0	-31.0	2876.93
-63.0	-29.0	2868.69
-63.0	-27.0	2859.16
-63.0	-25.0	2843.93
-63.0	-23.0	2811.87
-63.0	-21.0	2813.31
-63.0	-19.0	2812.4
-63.0	-17.0	2834.47
-63.0	-15.0	2841.54
-63.0	-13.0	2861.16
-63.0	-11.0	2878.69
-63.0	-9.0	2897.69
-63.0	-7.0	2890.82
-63.0	-5.0	2880.16
-63.0	-3.0	2882.38
-63.0	-1.0	2870.23
-63.0	1.0	2878.28
-63.0	3.0	2861.32
-63.0	5.0	2862.22
-63.0	7.0	2882.79
-63.0	9.0	2878.17
-63.0	11.0	2771.99
-63.0	13.0	2768.36
-63.0	15.0	2886.63
-63.0	17.0	2820.45
-63.0	19.0	2933.68
-63.0	21.0	2889.82
-63.0	23.0	2931.96
-63.0	25.0	2940.16
-63.0	27.0	2936.95
-63.0	29.0	2888.51
-63.0	31.0	2846.23
-63.0	33.0	2815.64
-63.0	35.0	2836.1
-63.0	37.0	2806.41
-63.0	39.0	2768.72
-63.0	41.0	2725.94
-63.0	43.0	2741.64
-63.0	45.0	2844.44
-63.0	47.0	2818.87
-63.0	49.0	2862.11
-63.0	51.0	2866.45
-63.0	53.0	2868.67
-63.0	55.0	2873.1
-63.0	57.0	2867.64
-63.0	59.0	2876.17
-63.0	61.0	2692.51
-63.0	63.0	2835.0
-63.0	65.0	2908.67
-63.0	67.0	2890.46
-63.0	69.0	2682.71
-63.0	71.0	2728.97
-63.0	73.0	2648.73
-63.0	75.0	2931.84
-63.0	77.0	2850.32
-63.0	79.0	2870.11
-63.0	81.0	2921.72
-63.0	83.0	2838.24
-63.0	85.0	2847.44
-63.0	87.0	2646.68
-63.0	89.0	2646.68
-61.0	-89.0	2782.83
-61.0	-87.0	2782.83
-61.0	-85.0	2850.44
-61.0	-83.0	2879.69
-61.0	-81.0	2861.44
-61.0	-79.0	2888.63
-61.0	-77.0	2749.06
-61.0	-75.0	2791.82
-61.0	-73.0	2805.6
-61.0	-71.0	2799.22
-61.0	-69.0	2769.08
-61.0	-67.0	2795.64
-61.0	-65.0	2832.26
-61.0	-63.0	2848.17
-61.0	-61.0	2841.26
-61.0	-59.0	2888.36
-61.0	-57.0	2864.03
-61.0	-55.0	2828.28
-61.0	-53.0	2858.11
-61.0	-51.0	2852.47
-61.0	-49.0	2851.34
-61.0	-47.0	2855.62
-61.0	-45.0	2845.33
-61.0	-43.0	2837.64
-61.0	-41.0	2815.39
-61.0	-39.0	2851.36
-61.0	-37.0	2833.67
-61.0	-35.0	2834.48
-61.0	-33.0	2864.67
-61.0	-31.0	2869.22
-61.0	-29.0	2870.93
-61.0	-27.0	2867.8
-61.0	-25.0	2860.83
-61.0	-23.0	2840.24
-61.0	-21.0	2849.56
-61.0	-19.0	2819.87
-61.0	-17.0	2873.1
-61.0	-15.0	2871.0
-61.0	-13.0	2864.28
-61.0	-11.0	2885.38
-61.0	-9.0	2893.86
-61.0	-7.0	2886.38
-61.0	-5.0	2882.05
-61.0	-3.0	2861.77
-61.0	-1.0	2891.85
-61.0	1.0	2882.77
-61.0	3.0	2871.72
-61.0	5.0	2841.19
-61.0	7.0	2873.53
-61.0	9.0	2809.63
-61.0	11.0	2724.43
-61.0	13.0	2787.35
-61.0	15.0	2784.73
-61.0	17.0	2795.06
-61.0	19.0	2916.88
-61.0	21.0	2933.97
-61.0	23.0	2950.29
-61.0	25.0	2955.04
-61.0	27.0	2967.68
-61.0	29.0	2939.17
-61.0	31.0	2875.65
-61.0	33.0	2811.71
-61.0	35.0	2760.85
-61.0	37.0	2796.49
-61.0	39.0	2783.08
-61.0	41.0	2723.01
-61.0	43.0	2735.2
-61.0	45.0	2843.48
-61.0	47.0	2865.38
-61.0	49.0	2855.04
-61.0	51.0	2882.19
-61.0	53.0	2877.45
-61.0	55.0	2875.78
-61.0	57.0	2866.73
-61.0	59.0	2700.54
-61.0	61.0	2620.25
-61.0	63.0	2680.76
-61.0	65.0	2858.2
-61.0	67.0	2822.25
-61.0	69.0	2666.06
-61.0	71.0	2675.38
-61.0	73.0	2772.88
-61.0	75.0	2973.72
-61.0	77.0	2841.68
-61.0	79.0	2856.83
-61.0	81.0	2924.48
-61.0	83.0	2842.09
-61.0	85.0	2861.8
-61.0	87.0	2668.94
-61.0	89.0	2668.94
-59.0	-89.0	2777.5
-59.0	-87.0	2777.5
-59.0	-85.0	2835.39
-59.0	-83.0	2883.03
-59.0	-81.0	2865.18
-59.0	-79.0	2873.74
-59.0	-77.0	2740.62
-59.0	-75.0	2756.1
-59.0	-73.0	2766.2
-59.0	-71.0	2764.72
-59.0	-69.0	2754.09
-59.0	-67.0	2771.5
-59.0	-65.0	2800.0
-59.0	-63.0	2824.88
-59.0	-61.0	2848.06
-59.0	-59.0	2852.78
-59.0	-57.0	2848.8
-59.0	-55.0	2787.35
-59.0	-53.0	2893.72
-59.0	-51.0	2871.55
-59.0	-49.0	2837.91
-59.0	-47.0	2771.66
-59.0	-45.0	2753.21
-59.0	-43.0	2855.67
-59.0	-41.0	2816.18
-59.0	-39.0	2850.05
-59.0	-37.0	2827.34
-59.0	-35.0	2822.85
-59.0	-33.0	2858.69
-59.0	-31.0	2862.41
-59.0	-29.0	2868.95
-59.0	-27.0	2868.55
-59.0	-25.0	2863.02
-59.0	-23.0	2845.36
-59.0	-21.0	2858.19
-59.0	-19.0	2857.24
-59.0	-17.0	2865.36
-59.0	-15.0	2853.79
-59.0	-13.0	2873.35
-59.0	-11.0	2880.97
-59.0	-9.0	2884.07
-59.0	-7.0	2886.02
-59.0	-5.0	2867.42
-59.0	-3.0	2832.81
-59.0	-1.0	2881.83
-59.0	1.0	2871.74
-59.0	3.0	2861.82
-59.0	5.0	2869.73
-59.0	7.0	2861.63
-59.0	9.0	2779.0
-59.0	11.0	2665.72
-59.0	13.0	2661.95
-59.0	15.0	2669.35
-59.0	17.0	2804.69
-59.0	19.0	2909.83
-59.0	21.0	2943.15
-59.0	23.0	2974.84
-59.0	25.0	2978.66
-59.0	27.0	2964.19
-59.0	29.0	2962.52
-59.0	31.0	2929.02
-59.0	33.0	2836.53
-59.0	35.0	2802.55
-59.0	37.0	2820.15
-59.0	39.0	2782.75
-59.0	41.0	2700.6
-59.0	43.0	2837.35
-59.0	45.0	2786.08
-59.0	47.0	2854.77
-59.0	49.0	2876.09
-59.0	51.0	2873.89
-59.0	53.0	2873.53
-59.0	55.0	2893.94
-59.0	57.0	2698.76
-59.0	59.0	2668.32
-59.0	61.0	2652.46
-59.0	63.0	2558.55
-59.0	65.0	2690.0
-59.0	67.0	2783.18
-59.0	69.0	2607.27
-59.0	71.0	2759.85
-59.0	73.0	2895.17
-59.0	75.0	2961.76
-59.0	77.0	2827.69
-59.0	79.0	2841.25
-59.0	81.0	2904.69
-59.0	83.0	2853.91
-59.0	85.0	2872.29
-59.0	87.0	2740.1
-59.0	89.0	2740.1
-57.0	-89.0	2778.76
-57.0	-87.0	2778.76
-57.0	-85.0	2820.51
-57.0	-83.0	2860.41
-57.0	-81.0	2861.78
-57.0	-79.0	2875.84
-57.0	-77.0	2735.73
-57.0	-75.0	2728.34
-57.0	-73.0	2732.72
-57.0	-71.0	2728.2
-57.0	-69.0	2732.37
-57.0	-67.0	2737.31
-57.0	-65.0	2787.06
-57.0	-63.0	2827.79
-57.0	-61.0	2804.6
-57.0	-59.0	2850.58
-57.0	-57.0	2852.52
-57.0	-55.0	2819.71
-57.0	-53.0	2767.18
-57.0	-51.0	2864.49
-57.0	-49.0	2838.84
-57.0	-47.0	2747.93
-57.0	-45.0	2759.13
-57.0	-43.0	2713.23
-57.0	-41.0	2801.09
-57.0	-39.0	2834.48
-57.0	-37.0	2826.11
-57.0	-35.0	2856.2
-57.0	-33.0	2853.3
-57.0	-31.0	2851.65
-57.0	-29.0	2867.9
-57.0	-27.0	2856.69
-57.0	-25.0	2864.77
-57.0	-23.0	2850.27
-57.0	-21.0	2852.39
-57.0	-19.0	2860.87
-57.0	-17.0	2861.98
-57.0	-15.0	2858.43
-57.0	-13.0	2866.95
-57.0	-11.0	2876.13
-57.0	-9.0	2875.93
-57.0	-7.0	2879.88
-57.0	-5.0	2878.48
-57.0	-3.0	2838.74
-57.0	-1.0	2873.72
-57.0	1.0	2868.36
-57.0	3.0	2860.02
-57.0	5.0	2861.22
-57.0	7.0	2791.42
-57.0	9.0	2678.93
-57.0	11.0	2685.65
-57.0	13.0	2719.51
-57.0	15.0	2835.66
-57.0	17.0	2910.74
-57.0	19.0	2958.49
-57.0	21.0	2936.07
-57.0	23.0	2980.71
-57.0	25.0	2996.66
-57.0	27.0	2992.43
-57.0	29.0	2975.14
-57.0	31.0	2923.46
-57.0	33.0	2860.34
-57.0	35.0	2848.16
-57.0	37.0	2828.18
-57.0	39.0	2792.5
-57.0	41.0	2732.46
-57.0	43.0	2770.41
-57.0	45.0	2737.05
-57.0	47.0	2855.98
-57.0	49.0	2864.48
-57.0	51.0	2851.15
-57.0	53.0	2869.66
-57.0	55.0	2844.81
-57.0	57.0	2612.31
-57.0	59.0	2662.52
-57.0	61.0	2682.88
-57.0	63.0	2623.45
-57.0	65.0	2804.7
-57.0	67.0	2838.92
-57.0	69.0	2742.45
-57.0	71.0	2930.94
-57.0	73.0	2956.29
-57.0	75.0	2920.51
-57.0	77.0	2809.98
-57.0	79.0	2836.17
-57.0	81.0	2881.28
-57.0	83.0	2859.13
-57.0	85.0	2865.01
-57.0	87.0	2750.75
-57.0	89.0	2750.75
-55.0	-89.0	2776.74
-55.0	-87.0	2776.74
-55.0	-85.0	2808.97
-55.0	-83.0	2838.16
-55.0	-81.0	2870.2
-55.0	-79.0	2882.4
-55.0	-77.0	2737.03
-55.0	-75.0	2710.68
-55.0	-73.0	2709.63
-55.0	-71.0	2673.47
-55.0	-69.0	2699.69
-55.0	-67.0	2708.16
-55.0	-65.0	2745.4
-55.0	-63.0	2815.23
-55.0	-61.0	2828.16
-55.0	-59.0	2859.85
-55.0	-57.0	2889.45
-55.0	-55.0	2780.94
-55.0	-53.0	2695.03
-55.0	-51.0	2789.51
-55.0	-49.0	2785.4
-55.0	-47.0	2895.36
-55.0	-45.0	2834.44
-55.0	-43.0	2807.84
-55.0	-41.0	2788.29
-55.0	-39.0	2789.89
-55.0	-37.0	2800.97
-55.0	-35.0	2845.31
-55.0	-33.0	2851.85
-55.0	-31.0	2855.64
-55.0	-29.0	2861.33
-55.0	-27.0	2845.34
-55.0	-25.0	2846.77
-55.0	-23.0	2840.49
-55.0	-21.0	2826.85
-55.0	-19.0	2851.08
-55.0	-17.0	2845.43
-55.0	-15.0	2856.83
-55.0	-13.0	2863.71
-55.0	-11.0	2865.37
-55.0	-9.0	2858.88
-55.0	-7.0	2874.27
-55.0	-5.0	2876.52
-55.0	-3.0	2875.68
-55.0	-1.0	2884.96
-55.0	1.0	2864.99
-55.0	3.0	2870.13
-55.0	5.0	2866.14
-55.0	7.0	2751.82
-55.0	9.0	2668.64
-55.0	11.0	2742.54
-55.0	13.0	2812.16
-55.0	15.0	2866.16
-55.0	17.0	2937.89
-55.0	19.0	2939.63
-55.0	21.0	2962.46
-55.0	23.0	2984.34
-55.0	25.0	2998.42
-55.0	27.0	2994.76
-55.0	29.0	2970.17
-55.0	31.0	2941.58
-55.0	33.0	2909.91
-55.0	35.0	2884.21
-55.0	37.0	2846.28
-55.0	39.0	2791.25
-55.0	41.0	2766.46
-55.0	43.0	2740.4
-55.0	45.0	2675.99
-55.0	47.0	2855.23
-55.0	49.0	2877.55
-55.0	51.0	2902.84
-55.0	53.0	2885.94
-55.0	55.0	2727.18
-55.0	57.0	2652.86
-55.0	59.0	2684.47
-55.0	61.0	2685.14
-55.0	63.0	2754.23
-55.0	65.0	2863.44
-55.0	67.0	2887.73
-55.0	69.0	2905.95
-55.0	71.0	2939.83
-55.0	73.0	2929.29
-55.0	75.0	2855.17
-55.0	77.0	2792.12
-55.0	79.0	2832.0
-55.0	81.0	2888.25
-55.0	83.0	2856.05
-55.0	85.0	2839.86
-55.0	87.0	2755.42
-55.0	89.0	2755.42
-53.0	-89.0	2776.08
-53.0	-87.0	2776.08
-53.0	-85.0	2808.79
-53.0	-83.0	2828.36
-53.0	-81.0	2875.52
-53.0	-79.0	2892.4
-53.0	-77.0	2745.02
-53.0	-75.0	2695.21
-53.0	-73.0	2692.3
-53.0	-71.0	2700.18
-53.0	-69.0	2668.35
-53.0	-67.0	2691.77
-53.0	-65.0	2726.48
-53.0	-63.0	2813.8
-53.0	-61.0	2801.3
-53.0	-59.0	2838.61
-53.0	-57.0	2868.09
-53.0	-55.0	2861.89
-53.0	-53.0	2697.59
-53.0	-51.0	2679.44
-53.0	-49.0	2803.11
-53.0	-47.0	2920.39
-53.0	-45.0	2840.55
-53.0	-43.0	2852.15
-53.0	-41.0	2852.56
-53.0	-39.0	2717.21
-53.0	-37.0	2693.19
-53.0	-35.0	2820.16
-53.0	-33.0	2836.48
-53.0	-31.0	2854.86
-53.0	-29.0	2861.57
-53.0	-27.0	2852.46
-53.0	-25.0	2847.37
-53.0	-23.0	2848.74
-53.0	-21.0	2818.29
-53.0	-19.0	2862.97
-53.0	-17.0	2842.65
-53.0	-15.0	2852.22
-53.0	-13.0	2870.48
-53.0	-11.0	2860.07
-53.0	-9.0	2866.45
-53.0	-7.0	2867.54
-53.0	-5.0	2878.51
-53.0	-3.0	2884.08
-53.0	-1.0	2865.5
-53.0	1.0	2874.31
-53.0	3.0	2843.99
-53.0	5.0	2869.71
-53.0	7.0	2761.08
-53.0	9.0	2686.11
-53.0	11.0	2793.36
-53.0	13.0	2892.1
-53.0	15.0	2923.49
-53.0	17.0	2925.91
-53.0	19.0	2958.57
-53.0	21.0	2973.41
-53.0	23.0	2987.25
-53.0	25.0	2990.42
-53.0	27.0	2992.05
-53.0	29.0	2981.79
-53.0	31.0	2946.42
-53.0	33.0	2934.17
-53.0	35.0	2913.83
-53.0	37.0	2892.53
-53.0	39.0	2850.64
-53.0	41.0	2796.01
-53.0	43.0	2692.07
-53.0	45.0	2752.83
-53.0	47.0	2913.05
-53.0	49.0	2912.58
-53.0	51.0	2847.45
-53.0	53.0	2858.03
-53.0	55.0	2745.9
-53.0	57.0	2706.76
-53.0	59.0	2726.83
-53.0	61.0	2691.49
-53.0	63.0	2868.13
-53.0	65.0	2881.03
-53.0	67.0	2897.09
-53.0	69.0	2898.08
-53.0	71.0	2922.32
-53.0	73.0	2860.66
-53.0	75.0	2822.17
-53.0	77.0	2778.58
-53.0	79.0	2824.71
-53.0	81.0	2872.08
-53.0	83.0	2865.29
-53.0	85.0	2818.33
-53.0	87.0	2804.75
-53.0	89.0	2804.75
-51.0	-89.0	2771.08
-51.0	-87.0	2771.08
-51.0	-85.0	2807.21
-51.0	-83.0	2806.73
-51.0	-81.0	2877.23
-51.0	-79.0	2898.94
-51.0	-77.0	2752.26
-51.0	-75.0	2684.72
-51.0	-73.0	2685.9
-51.0	-71.0	2677.5
-51.0	-69.0	2602.02
-51.0	-67.0	2628.89
-51.0	-65.0	2680.21
-51.0	-63.0	2824.11
-51.0	-61.0	2719.75
-51.0	-59.0	2798.5
-51.0	-57.0	2874.08
-51.0	-55.0	2868.19
-51.0	-53.0	2714.98
-51.0	-51.0	2673.69
-51.0	-49.0	2875.11
-51.0	-47.0	2906.96
-51.0	-45.0	2774.33
-51.0	-43.0	2801.21
-51.0	-41.0	2841.25
-51.0	-39.0	2778.67
-51.0	-37.0	2706.07
-51.0	-35.0	2671.33
-51.0	-33.0	2767.38
-51.0	-31.0	2834.66
-51.0	-29.0	2838.28
-51.0	-27.0	2841.79
-51.0	-25.0	2839.86
-51.0	-23.0	2862.45
-51.0	-21.0	2880.61
-51.0	-19.0	2879.02
-51.0	-17.0	2860.35
-51.0	-15.0	2856.76
-51.0	-13.0	2882.11
-51.0	-11.0	2857.62
-51.0	-9.0	2859.68
-51.0	-7.0	2860.29
-51.0	-5.0	2875.24
-51.0	-3.0	2894.77
-51.0	-1.0	2832.69
-51.0	1.0	2858.31
-51.0	3.0	2862.12
-51.0	5.0	2754.34
-51.0	7.0	2701.16
-51.0	9.0	2766.24
-51.0	11.0	2822.36
-51.0	13.0	2905.13
-51.0	15.0	2903.67
-51.0	17.0	2927.01
-51.0	19.0	2942.5
-51.0	21.0	2954.25
-51.0	23.0	2972.57
-51.0	25.0	2976.24
-51.0	27.0	2979.46
-51.0	29.0	2980.4
-51.0	31.0	2968.52
-51.0	33.0	2933.6
-51.0	35.0	2858.72
-51.0	37.0	2908.68
-51.0	39.0	2881.41
-51.0	41.0	2761.76
-51.0	43.0	2764.33
-51.0	45.0	2824.17
-51.0	47.0	2874.12
-51.0	49.0	2817.52
-51.0	51.0	2779.48
-51.0	53.0	2802.74
-51.0	55.0	2691.78
-51.0	57.0	2736.28
-51.0	59.0	2724.64
-51.0	61.0	2826.52
-51.0	63.0	2934.73
-51.0	65.0	2905.39
-51.0	67.0	2958.0
-51.0	69.0	2963.09
-51.0	71.0	2912.91
-51.0	73.0	2824.05
-51.0	75.0	2804.76
-51.0	77.0	2772.71
-51.0	79.0	2813.9
-51.0	81.0	2887.06
-51.0	83.0	2846.35
-51.0	85.0	2837.13
-51.0	87.0	2824.85
-51.0	89.0	2824.85
-49.0	-89.0	2769.78
-49.0	-87.0	2769.78
-49.0	-85.0	2808.41
-49.0	-83.0	2809.32
-49.0	-81.0	2887.9
-49.0	-79.0	2845.6
-49.0	-77.0	2766.61
-49.0	-75.0	2698.8
-49.0	-73.0	2687.46
-49.0	-71.0	2672.25
-49.0	-69.0	2632.17
-49.0	-67.0	2733.73
-49.0	-65.0	2817.51
-49.0	-63.0	2761.4
-49.0	-61.0	2717.5
-49.0	-59.0	2842.59
-49.0	-57.0	2864.88
-49.0	-55.0	2858.56
-49.0	-53.0	2699.51
-49.0	-51.0	2646.77
-49.0	-49.0	2875.89
-49.0	-47.0	2874.55
-49.0	-45.0	2813.59
-49.0	-43.0	2827.88
-49.0	-41.0	2832.77
-49.0	-39.0	2807.37
-49.0	-37.0	2754.8
-49.0	-35.0	2691.35
-49.0	-33.0	2640.04
-49.0	-31.0	2757.02
-49.0	-29.0	2827.68
-49.0	-27.0	2813.75
-49.0	-25.0	2834.89
-49.0	-23.0	2860.14
-49.0	-21.0	2878.14
-49.0	-19.0	2871.32
-49.0	-17.0	2846.11
-49.0	-15.0	2860.66
-49.0	-13.0	2865.48
-49.0	-11.0	2846.66
-49.0	-9.0	2851.16
-49.0	-7.0	2851.87
-49.0	-5.0	2874.85
-49.0	-3.0	2854.24
-49.0	-1.0	2844.48
-49.0	1.0	2809.17
-49.0	3.0	2748.03
-49.0	5.0	2708.73
-49.0	7.0	2718.05
-49.0	9.0	2771.67
-49.0	11.0	2855.21
-49.0	13.0	2914.88
-49.0	15.0	2861.07
-49.0	17.0	2863.01
-49.0	19.0	2904.14
-49.0	21.0	2921.24
-49.0	23.0	2937.26
-49.0	25.0	2944.81
-49.0	27.0	2952.45
-49.0	29.0	2960.57
-49.0	31.0	2967.1
-49.0	33.0	2952.96
-49.0	35.0	2899.71
-49.0	37.0	2931.87
-49.0	39.0	2897.88
-49.0	41.0	2740.15
-49.0	43.0	2724.04
-49.0	45.0	2838.54
-49.0	47.0	2800.65
-49.0	49.0	2749.72
-49.0	51.0	2648.5
-49.0	53.0	2676.26
-49.0	55.0	2771.39
-49.0	57.0	2768.33
-49.0	59.0	2715.34
-49.0	61.0	2868.19
-49.0	63.0	2872.76
-49.0	65.0	2857.2
-49.0	67.0	2920.52
-49.0	69.0	2903.11
-49.0	71.0	2842.3
-49.0	73.0	2800.85
-49.0	75.0	2787.37
-49.0	77.0	2756.25
-49.0	79.0	2800.9
-49.0	81.0	2872.67
-49.0	83.0	2854.44
-49.0	85.0	2858.86
-49.0	87.0	2756.72
-49.0	89.0	2756.72
-47.0	-89.0	2765.0
-47.0	-87.0	2765.0
-47.0	-85.0	2811.78
-47.0	-83.0	2831.89
-47.0	-81.0	2884.0
-47.0	-79.0	2815.68
-47.0	-77.0	2773.49
-47.0	-75.0	2704.06
-47.0	-73.0	2687.76
-47.0	-71.0	2671.99
-47.0	-69.0	2721.19
-47.0	-67.0	2830.75
-47.0	-65.0	2877.54
-47.0	-63.0	2765.11
-47.0	-61.0	2737.8
-47.0	-59.0	2799.61
-47.0	-57.0	2828.94
-47.0	-55.0	2857.03
-47.0	-53.0	2684.8
-47.0	-51.0	2660.48
-47.0	-49.0	2871.09
-47.0	-47.0	2862.55
-47.0	-45.0	2798.17
-47.0	-43.0	2810.68
-47.0	-41.0	2806.25
-47.0	-39.0	2799.9
-47.0	-37.0	2765.11
-47.0	-35.0	2745.13
-47.0	-33.0	2649.04
-47.0	-31.0	2665.49
-47.0	-29.0	2777.51
-47.0	-27.0	2786.31
-47.0	-25.0	2810.66
-47.0	-23.0	2848.02
-47.0	-21.0	2868.84
-47.0	-19.0	2857.35
-47.0	-17.0	2855.29
-47.0	-15.0	2855.37
-47.0	-13.0	2859.99
-47.0	-11.0	2839.11
-47.0	-9.0	2843.75
-47.0	-7.0	2846.43
-47.0	-5.0	2855.57
-47.0	-3.0	2869.56
-47.0	-1.0	2828.33
-47.0	1.0	2784.28
-47.0	3.0	2710.64
-47.0	5.0	2679.64
-47.0	7.0	2747.24
-47.0	9.0	2826.26
-47.0	11.0	2877.1
-47.0	13.0	2888.93
-47.0	15.0	2811.77
-47.0	17.0	2731.92
-47.0	19.0	2776.57
-47.0	21.0	2828.0
-47.0	23.0	2857.09
-47.0	25.0	2828.54
-47.0	27.0	2892.21
-47.0	29.0	2916.33
-47.0	31.0	2931.06
-47.0	33.0	2948.25
-47.0	35.0	2911.1
-47.0	37.0	2930.53
-47.0	39.0	2879.63
-47.0	41.0	2770.29
-47.0	43.0	2758.79
-47.0	45.0	2703.25
-47.0	47.0	2748.33
-47.0	49.0	2790.92
-47.0	51.0	2762.05
-47.0	53.0	2794.62
-47.0	55.0	2795.56
-47.0	57.0	2767.16
-47.0	59.0	2792.17
-47.0	61.0	2857.2
-47.0	63.0	2785.85
-47.0	65.0	2814.17
-47.0	67.0	2873.75
-47.0	69.0	2881.44
-47.0	71.0	2823.33
-47.0	73.0	2780.07
-47.0	75.0	2772.25
-47.0	77.0	2744.59
-47.0	79.0	2792.84
-47.0	81.0	2871.16
-47.0	83.0	2859.32
-47.0	85.0	2845.78
-47.0	87.0	2679.78
-47.0	89.0	2679.78
-45.0	-89.0	2761.96
-45.0	-87.0	2761.96
-45.0	-85.0	2811.29
-45.0	-83.0	2828.73
-45.0	-81.0	2883.77
-45.0	-79.0	2819.35
-45.0	-77.0	2771.39
-45.0	-75.0	2701.76
-45.0	-73.0	2703.44
-45.0	-71.0	2714.68
-45.0	-69.0	2780.15
-45.0	-67.0	2849.12
-45.0	-65.0	2902.14
-45.0	-63.0	2745.76
-45.0	-61.0	2707.92
-45.0	-59.0	2746.98
-45.0	-57.0	2807.58
-45.0	-55.0	2860.11
-45.0	-53.0	2688.15
-45.0	-51.0	2694.57
-45.0	-49.0	2883.88
-45.0	-47.0	2826.95
-45.0	-45.0	2769.84
-45.0	-43.0	2778.87
-45.0	-41.0	2754.38
-45.0	-39.0	2773.48
-45.0	-37.0	2763.98
-45.0	-35.0	2744.09
-45.0	-33.0	2621.26
-45.0	-31.0	2600.39
-45.0	-29.0	2681.04
-45.0	-27.0	2822.7
-45.0	-25.0	2744.26
-45.0	-23.0	2851.12
-45.0	-21.0	2861.73
-45.0	-19.0	2875.44
-45.0	-17.0	2854.44
-45.0	-15.0	2860.9
-45.0	-13.0	2833.9
-45.0	-11.0	2850.95
-45.0	-9.0	2851.2
-45.0	-7.0	2814.06
-45.0	-5.0	2835.79
-45.0	-3.0	2844.35
-45.0	-1.0	2823.9
-45.0	1.0	2698.92
-45.0	3.0	2707.33
-45.0	5.0	2746.2
-45.0	7.0	2820.1
-45.0	9.0	2859.53
-45.0	11.0	2874.88
-45.0	13.0	2755.63
-45.0	15.0	2801.0
-45.0	17.0	2883.42
-45.0	19.0	2824.73
-45.0	21.0	2779.96
-45.0	23.0	2806.16
-45.0	25.0	2796.62
-45.0	27.0	2780.67
-45.0	29.0	2818.37
-45.0	31.0	2880.86
-45.0	33.0	2902.35
-45.0	35.0	2910.74
-45.0	37.0	2933.47
-45.0	39.0	2859.5
-45.0	41.0	2833.43
-45.0	43.0	2867.93
-45.0	45.0	2823.81
-45.0	47.0	2894.89
-45.0	49.0	2868.43
-45.0	51.0	2797.3
-45.0	53.0	2809.8
-45.0	55.0	2801.36
-45.0	57.0	2779.33
-45.0	59.0	2845.01
-45.0	61.0	2847.1
-45.0	63.0	2751.68
-45.0	65.0	2799.1
-45.0	67.0	2852.93
-45.0	69.0	2862.52
-45.0	71.0	2804.56
-45.0	73.0	2766.96
-45.0	75.0	2765.63
-45.0	77.0	2743.9
-45.0	79.0	2791.53
-45.0	81.0	2877.14
-45.0	83.0	2866.66
-45.0	85.0	2826.54
-45.0	87.0	2706.4
-45.0	89.0	2706.4
-43.0	-89.0	2762.61
-43.0	-87.0	2762.61
-43.0	-85.0	2805.15
-43.0	-83.0	2837.71
-43.0	-81.0	2880.07
-43.0	-79.0	2841.57
-43.0	-77.0	2760.04
-43.0	-75.0	2705.58
-43.0	-73.0	2759.62
-43.0	-71.0	2709.62
-43.0	-69.0	2803.65
-43.0	-67.0	2855.03
-43.0	-65.0	2914.17
-43.0	-63.0	2767.32
-43.0	-61.0	2781.65
-43.0	-59.0	2805.1
-43.0	-57.0	2797.56
-43.0	-55.0	2806.82
-43.0	-53.0	2727.45
-43.0	-51.0	2734.47
-43.0	-49.0	2894.92
-43.0	-47.0	2846.42
-43.0	-45.0	2759.65
-43.0	-43.0	2739.84
-43.0	-41.0	2763.39
-43.0	-39.0	2767.05
-43.0	-37.0	2781.54
-43.0	-35.0	2773.12
-43.0	-33.0	2738.51
-43.0	-31.0	2577.65
-43.0	-29.0	2659.83
-43.0	-27.0	2741.66
-43.0	-25.0	2749.72
-43.0	-23.0	2858.51
-43.0	-21.0	2885.58
-43.0	-19.0	2866.52
-43.0	-17.0	2823.05
-43.0	-15.0	2851.17
-43.0	-13.0	2835.97
-43.0	-11.0	2855.87
-43.0	-9.0	2849.65
-43.0	-7.0	2844.31
-43.0	-5.0	2850.43
-43.0	-3.0	2800.11
-43.0	-1.0	2771.19
-43.0	1.0	2750.81
-43.0	3.0	2770.45
-43.0	5.0	2788.75
-43.0	7.0	2857.15
-43.0	9.0	2868.84
-43.0	11.0	2813.54
-43.0	13.0	2895.56
-43.0	15.0	2923.94
-43.0	17.0	2937.76
-43.0	19.0	2935.78
-43.0	21.0	2938.39
-43.0	23.0	2928.77
-43.0	25.0	2916.9
-43.0	27.0	2885.57
-43.0	29.0	2749.85
-43.0	31.0	2807.64
-43.0	33.0	2873.44
-43.0	35.0	2890.94
-43.0	37.0	2918.92
-43.0	39.0	2905.83
-43.0	41.0	2887.25
-43.0	43.0	2902.99
-43.0	45.0	2885.11
-43.0	47.0	2950.22
-43.0	49.0	2901.99
-43.0	51.0	2830.47
-43.0	53.0	2819.86
-43.0	55.0	2827.61
-43.0	57.0	2803.62
-43.0	59.0	2826.12
-43.0	61.0	2863.59
-43.0	63.0	2822.5
-43.0	65.0	2783.81
-43.0	67.0	2812.94
-43.0	69.0	2823.52
-43.0	71.0	2784.66
-43.0	73.0	2759.81
-43.0	75.0	2774.41
-43.0	77.0	2749.73
-43.0	79.0	2795.28
-43.0	81.0	2834.66
-43.0	83.0	2877.38
-43.0	85.0	2833.47
-43.0	87.0	2770.06
-43.0	89.0	2770.06
-41.0	-89.0	2762.57
-41.0	-87.0	2762.57
-41.0	-85.0	2800.28
-41.0	-83.0	2809.32
-41.0	-81.0	2863.79
-41.0	-79.0	2823.78
-41.0	-77.0	2747.41
-41.0	-75.0	2712.79
-41.0	-73.0	2789.52
-41.0	-71.0	2751.29
-41.0	-69.0	2814.03
-41.0	-67.0	2859.92
-41.0	-65.0	2912.22
-41.0	-63.0	2843.85
-41.0	-61.0	2722.08
-41.0	-59.0	2751.38
-41.0	-57.0	2724.97
-41.0	-55.0	2785.01
-41.0	-53.0	2738.19
-41.0	-51.0	2712.17
-41.0	-49.0	2857.55
-41.0	-47.0	2867.89
-41.0	-45.0	2753.64
-41.0	-43.0	2766.32
-41.0	-41.0	2786.53
-41.0	-39.0	2798.88
-41.0	-37.0	2806.81
-41.0	-35.0	2788.53
-41.0	-33.0	2773.56
-41.0	-31.0	2737.34
-41.0	-29.0	2703.5
-41.0	-27.0	2728.12
-41.0	-25.0	2701.21
-41.0	-23.0	2773.99
-41.0	-21.0	2832.56
-41.0	-19.0	2849.18
-41.0	-17.0	2847.76
-41.0	-15.0	2840.72
-41.0	-13.0	2828.18
-41.0	-11.0	2859.33
-41.0	-9.0	2884.5
-41.0	-7.0	2840.78
-41.0	-5.0	2827.62
-41.0	-3.0	2804.75
-41.0	-1.0	2708.97
-41.0	1.0	2787.9
-41.0	3.0	2790.21
-41.0	5.0	2845.27
-41.0	7.0	2881.59
-41.0	9.0	2780.56
-41.0	11.0	2830.19
-41.0	13.0	2940.75
-41.0	15.0	2971.14
-41.0	17.0	2981.21
-41.0	19.0	2984.7
-41.0	21.0	2983.33
-41.0	23.0	2976.05
-41.0	25.0	2962.55
-41.0	27.0	2931.14
-41.0	29.0	2886.98
-41.0	31.0	2750.52
-41.0	33.0	2796.43
-41.0	35.0	2883.63
-41.0	37.0	2904.01
-41.0	39.0	2945.47
-41.0	41.0	2928.34
-41.0	43.0	2933.0
-41.0	45.0	2893.21
-41.0	47.0	2861.5
-41.0	49.0	2861.92
-41.0	51.0	2862.21
-41.0	53.0	2825.01
-41.0	55.0	2833.17
-41.0	57.0	2805.84
-41.0	59.0	2737.08
-41.0	61.0	2889.7
-41.0	63.0	2867.68
-41.0	65.0	2847.46
-41.0	67.0	2809.92
-41.0	69.0	2794.03
-41.0	71.0	2760.95
-41.0	73.0	2749.97
-41.0	75.0	2770.52
-41.0	77.0	2758.67
-41.0	79.0	2802.89
-41.0	81.0	2827.28
-41.0	83.0	2906.37
-41.0	85.0	2828.82
-41.0	87.0	2763.03
-41.0	89.0	2763.03
-39.0	-89.0	2764.37
-39.0	-87.0	2764.37
-39.0	-85.0	2795.24
-39.0	-83.0	2790.58
-39.0	-81.0	2850.11
-39.0	-79.0	2825.95
-39.0	-77.0	2750.27
-39.0	-75.0	2725.68
-39.0	-73.0	2765.68
-39.0	-71.0	2776.75
-39.0	-69.0	2834.07
-39.0	-67.0	2869.97
-39.0	-65.0	2910.14
-39.0	-63.0	2880.99
-39.0	-61.0	2704.28
-39.0	-59.0	2728.13
-39.0	-57.0	2736.93
-39.0	-55.0	2748.78
-39.0	-53.0	2696.87
-39.0	-51.0	2763.51
-39.0	-49.0	2884.06
-39.0	-47.0	2874.94
-39.0	-45.0	2778.24
-39.0	-43.0	2786.63
-39.0	-41.0	2825.14
-39.0	-39.0	2822.41
-39.0	-37.0	2810.92
-39.0	-35.0	2806.5
-39.0	-33.0	2809.71
-39.0	-31.0	2766.65
-39.0	-29.0	2775.54
-39.0	-27.0	2766.77
-39.0	-25.0	2702.64
-39.0	-23.0	2760.79
-39.0	-21.0	2756.42
-39.0	-19.0	2785.82
-39.0	-17.0	2829.27
-39.0	-15.0	2868.85
-39.0	-13.0	2844.77
-39.0	-11.0	2850.56
-39.0	-9.0	2847.87
-39.0	-7.0	2826.7
-39.0	-5.0	2806.44
-39.0	-3.0	2821.0
-39.0	-1.0	2742.42
-39.0	1.0	2835.33
-39.0	3.0	2864.34
-39.0	5.0	2883.71
-39.0	7.0	2901.01
-39.0	9.0	2798.37
-39.0	11.0	2933.86
-39.0	13.0	2976.22
-39.0	15.0	2992.23
-39.0	17.0	2996.32
-39.0	19.0	2995.93
-39.0	21.0	2995.99
