lon	lat	mgal
109.0	-73.0	-393.8358
109.0	-72.0	-399.9926
109.0	-71.0	-376.8163
109.0	-70.0	-302.757
109.0	-69.0	-260.4489
109.0	-68.0	-173.8488
109.0	-67.0	-69.8999
109.0	-66.0	10.6662
109.0	-65.0	159.4067
109.0	-64.0	188.9628
109.0	-63.0	245.0243
109.0	-62.0	267.8018
109.0	-61.0	288.7055
109.0	-60.0	304.7721
109.0	-59.0	311.4852
109.0	-58.0	300.22
109.0	-57.0	264.5788
109.0	-56.0	273.0849
109.0	-55.0	270.662
109.0	-54.0	250.9458
109.0	-53.0	258.2426
109.0	-52.0	241.0327
109.0	-51.0	225.4524
109.0	-50.0	227.7199
109.0	-49.0	223.0373
109.0	-48.0	232.1539
109.0	-47.0	239.4211
109.0	-46.0	255.312
109.0	-45.0	268.8467
109.0	-44.0	269.5681
109.0	-43.0	277.4377
109.0	-42.0	287.1226
109.0	-41.0	281.1326
109.0	-40.0	291.1167
109.0	-39.0	296.8774
109.0	-38.0	271.4468
109.0	-37.0	296.9351
109.0	-36.0	332.0723
109.0	-35.0	332.6314
109.0	-34.0	325.7821
109.0	-33.0	332.8335
109.0	-32.0	338.0544
109.0	-31.0	335.8205
109.0	-30.0	337.4935
109.0	-29.0	352.9206
109.0	-28.0	345.2959
109.0	-27.0	332.9933
109.0	-26.0	311.284
109.0	-25.0	232.2383
109.0	-24.0	203.6139
109.0	-23.0	227.2223
109.0	-22.0	292.9918
109.0	-21.0	312.4672
109.0	-20.0	318.9327
109.0	-19.0	320.4569
109.0	-18.0	359.7196
109.0	-17.0	352.1028
109.0	-16.0	365.0651
109.0	-15.0	362.6172
109.0	-14.0	284.1908
109.0	-13.0	269.5478
109.0	-12.0	332.7293
109.0	-11.0	317.9151
109.0	-10.0	308.7299
109.0	-9.0	99.5356
109.0	-8.0	148.7442
109.0	-7.0	13.7845
109.0	-6.0	47.2902
109.0	-5.0	20.1015
109.0	-4.0	38.4363
109.0	-3.0	31.0643
109.0	-2.0	30.9153
109.0	-1.0	36.9959
109.0	0.0	49.7332
109.0	1.0	25.8262
109.0	2.0	20.6001
109.0	3.0	24.4195
109.0	4.0	24.6734
109.0	5.0	17.5681
109.0	6.0	21.533
109.0	7.0	35.2638
109.0	8.0	41.4056
109.0	9.0	39.002
109.0	10.0	7.3067
109.0	11.0	17.3446
109.0	12.0	-32.7934
109.0	13.0	-24.7213
109.0	14.0	-26.268
109.0	15.0	-21.0737
109.0	16.0	-9.2827
109.0	17.0	-2.2426
109.0	18.0	-24.871
109.0	19.0	-21.7707
109.0	20.0	-13.388
109.0	21.0	-23.0862
109.0	22.0	-15.1681
109.0	23.0	-35.183
109.0	24.0	-46.2522
109.0	25.0	-72.9756
109.0	26.0	-82.1132
109.0	27.0	-85.5783
109.0	28.0	-89.9071
109.0	29.0	-123.9528
109.0	30.0	-124.3065
109.0	31.0	-127.8901
109.0	32.0	-112.1495
109.0	33.0	-111.4065
109.0	34.0	-159.4841
109.0	35.0	-132.433
109.0	36.0	-139.4266
109.0	37.0	-159.5567
109.0	38.0	-161.746
109.0	39.0	-168.5252
109.0	40.0	-158.6784
109.0	41.0	-176.3342
109.0	42.0	-174.154
109.0	43.0	-146.9827
109.0	44.0	-119.8756
109.0	45.0	-143.533
109.0	46.0	-154.6741
109.0	47.0	-168.2497
109.0	48.0	-204.9339
109.0	49.0	-188.3098
109.0	50.0	-168.0508
109.0	51.0	-125.7263
109.0	52.0	-112.6338
109.0	53.0	-150.4475
109.0	54.0	-136.8787
109.0	55.0	-160.8468
109.0	56.0	-121.0266
109.0	57.0	-112.0542
109.0	58.0	-97.8915
109.0	59.0	-74.6935
109.0	60.0	-51.0245
109.0	61.0	-74.2768
109.0	62.0	-65.205
109.0	63.0	-65.1437
109.0	64.0	-65.7047
109.0	65.0	-44.5842
109.0	66.0	-51.4441
109.0	67.0	-59.4904
109.0	68.0	-53.3113
109.0	69.0	-32.3912
109.0	70.0	-25.0168
109.0	71.0	-35.3085
109.0	72.0	-10.6952
109.0	73.0	-11.5907
109.0	74.0	-36.9836
109.0	75.0	-19.3639
109.0	76.0	-25.4995
109.0	77.0	21.871
109.0	78.0	-4.1418
109.0	79.0	52.8787
109.0	80.0	140.7434
109.0	81.0	196.4605
109.0	82.0	213.9777
109.0	83.0	258.5193
109.0	84.0	240.4143
109.0	85.0	293.4228
109.0	86.0	296.8001
109.0	87.0	289.9186
109.0	88.0	278.0919
109.0	89.0	307.5946
109.0	90.0	311.9104
110.0	-90.0	-320.9156
110.0	-89.0	-359.8422
110.0	-88.0	-373.7474
110.0	-87.0	-389.5569
110.0	-86.0	-381.163
110.0	-85.0	-352.3806
110.0	-84.0	-340.0178
110.0	-83.0	-363.1709
110.0	-82.0	-366.1719
110.0	-81.0	-387.4257
110.0	-80.0	-401.7532
110.0	-79.0	-370.0404
110.0	-78.0	-341.6096
110.0	-77.0	-324.629
110.0	-76.0	-338.855
110.0	-75.0	-368.8193
110.0	-74.0	-390.3236
110.0	-73.0	-393.4273
110.0	-72.0	-391.4001
110.0	-71.0	-374.3201
110.0	-70.0	-298.3169
110.0	-69.0	-238.1418
110.0	-68.0	-170.274
110.0	-67.0	-53.7714
110.0	-66.0	1.3597
110.0	-65.0	149.7454
110.0	-64.0	188.8823
110.0	-63.0	250.6242
110.0	-62.0	265.4678
110.0	-61.0	291.4889
110.0	-60.0	298.9264
110.0	-59.0	304.8286
110.0	-58.0	306.7754
110.0	-57.0	301.4682
110.0	-56.0	272.1168
110.0	-55.0	265.8686
110.0	-54.0	253.7669
110.0	-53.0	247.2334
110.0	-52.0	242.3662
110.0	-51.0	231.2265
110.0	-50.0	222.9324
110.0	-49.0	222.7042
110.0	-48.0	240.111
110.0	-47.0	255.0398
110.0	-46.0	259.28
110.0	-45.0	262.3888
110.0	-44.0	271.0924
110.0	-43.0	271.9845
110.0	-42.0	283.531
110.0	-41.0	285.8267
110.0	-40.0	295.6695
110.0	-39.0	304.5981
110.0	-38.0	305.1441
110.0	-37.0	329.5157
110.0	-36.0	310.2933
110.0	-35.0	281.6785
110.0	-34.0	194.7702
110.0	-33.0	219.1488
110.0	-32.0	334.9366
110.0	-31.0	329.9223
110.0	-30.0	344.4668
110.0	-29.0	341.9826
110.0	-28.0	334.2524
110.0	-27.0	334.8875
110.0	-26.0	255.3265
110.0	-25.0	238.3158
110.0	-24.0	265.7103
110.0	-23.0	298.2478
110.0	-22.0	285.3754
110.0	-21.0	324.5024
110.0	-20.0	293.5572
110.0	-19.0	299.1083
110.0	-18.0	357.7414
110.0	-17.0	363.9847
110.0	-16.0	368.87
110.0	-15.0	370.0385
110.0	-14.0	377.0635
110.0	-13.0	354.9474
110.0	-12.0	311.6442
110.0	-11.0	359.5275
110.0	-10.0	171.5094
110.0	-9.0	135.9431
110.0	-8.0	106.5933
110.0	-7.0	-3.4994
110.0	-6.0	44.4678
110.0	-5.0	38.2336
110.0	-4.0	29.2287
110.0	-3.0	38.6078
110.0	-2.0	41.2255
110.0	-1.0	32.6691
110.0	0.0	41.5935
110.0	1.0	1.4335
110.0	2.0	24.2674
110.0	3.0	29.8382
110.0	4.0	22.3377
110.0	5.0	9.9127
110.0	6.0	46.5704
110.0	7.0	97.4585
110.0	8.0	25.7161
110.0	9.0	130.059
110.0	10.0	131.9769
110.0	11.0	38.6861
110.0	12.0	121.3129
110.0	13.0	105.4288
110.0	14.0	74.0901
110.0	15.0	8.0286
110.0	16.0	24.4916
110.0	17.0	50.1357
110.0	18.0	-3.3863
110.0	19.0	-20.0172
110.0	20.0	-15.6611
110.0	21.0	-18.4271
110.0	22.0	-36.6755
110.0	23.0	-33.1499
110.0	24.0	-56.1794
110.0	25.0	-58.6053
110.0	26.0	-83.7593
110.0	27.0	-66.1066
110.0	28.0	-35.1594
110.0	29.0	-66.767
110.0	30.0	-136.2797
110.0	31.0	-139.2153
110.0	32.0	-117.9904
110.0	33.0	-104.6746
110.0	34.0	-124.2474
110.0	35.0	-118.2385
110.0	36.0	-121.6598
110.0	37.0	-149.6217
110.0	38.0	-157.2464
110.0	39.0	-151.6282
110.0	40.0	-134.8649
110.0	41.0	-149.8851
110.0	42.0	-170.0307
110.0	43.0	-143.3963
110.0	44.0	-133.7577
110.0	45.0	-139.4122
110.0	46.0	-149.0208
110.0	47.0	-148.1237
110.0	48.0	-168.3265
110.0	49.0	-170.9546
110.0	50.0	-175.8753
110.0	51.0	-134.6875
110.0	52.0	-109.1845
110.0	53.0	-134.1045
110.0	54.0	-148.2151
110.0	55.0	-149.3186
110.0	56.0	-131.872
110.0	57.0	-94.158
110.0	58.0	-90.3056
110.0	59.0	-68.5766
110.0	60.0	-52.7759
110.0	61.0	-53.7013
110.0	62.0	-56.4205
110.0	63.0	-56.0628
110.0	64.0	-52.7104
110.0	65.0	-47.2082
110.0	66.0	-62.5293
110.0	67.0	-46.9857
110.0	68.0	-48.6955
110.0	69.0	-48.2272
110.0	70.0	-3.829
110.0	71.0	-27.5103
110.0	72.0	-2.6509
110.0	73.0	-13.7791
110.0	74.0	-31.4171
110.0	75.0	-17.0782
110.0	76.0	-23.2095
110.0	77.0	11.6914
110.0	78.0	15.8643
110.0	79.0	70.2216
110.0	80.0	161.0272
110.0	81.0	193.1563
110.0	82.0	223.8068
110.0	83.0	268.9227
110.0	84.0	245.4959
110.0	85.0	301.4549
110.0	86.0	295.7478
110.0	87.0	289.008
110.0	88.0	273.6688
110.0	89.0	308.142
110.0	90.0	311.9104
111.0	-90.0	-320.9156
111.0	-89.0	-359.9647
111.0	-88.0	-375.268
111.0	-87.0	-389.5964
111.0	-86.0	-381.2775
111.0	-85.0	-349.8937
111.0	-84.0	-338.279
111.0	-83.0	-360.1122
111.0	-82.0	-362.2158
111.0	-81.0	-390.0768
111.0	-80.0	-399.3376
111.0	-79.0	-363.836
111.0	-78.0	-338.416
111.0	-77.0	-323.9867
111.0	-76.0	-352.7212
111.0	-75.0	-387.3529
111.0	-74.0	-399.2255
111.0	-73.0	-388.335
111.0	-72.0	-371.6023
111.0	-71.0	-353.919
111.0	-70.0	-285.8896
111.0	-69.0	-216.7853
111.0	-68.0	-162.7673
111.0	-67.0	-49.9257
111.0	-66.0	13.4977
111.0	-65.0	127.9945
111.0	-64.0	195.8371
111.0	-63.0	232.8615
111.0	-62.0	271.5993
111.0	-61.0	286.7206
111.0	-60.0	299.6641
111.0	-59.0	307.0379
111.0	-58.0	303.6542
111.0	-57.0	301.5475
111.0	-56.0	283.6031
111.0	-55.0	272.0493
111.0	-54.0	248.0131
111.0	-53.0	245.4318
111.0	-52.0	254.0172
111.0	-51.0	252.7334
111.0	-50.0	224.8129
111.0	-49.0	238.9475
111.0	-48.0	248.4629
111.0	-47.0	265.5295
111.0	-46.0	267.4733
111.0	-45.0	264.474
111.0	-44.0	283.6325
111.0	-43.0	282.1242
111.0	-42.0	293.3801
111.0	-41.0	288.589
111.0	-40.0	281.0355
111.0	-39.0	300.6098
111.0	-38.0	310.9542
111.0	-37.0	315.5734
111.0	-36.0	294.1148
111.0	-35.0	240.5004
111.0	-34.0	162.4486
111.0	-33.0	234.5407
111.0	-32.0	316.2836
111.0	-31.0	323.6519
111.0	-30.0	340.8373
111.0	-29.0	355.7292
111.0	-28.0	327.8256
111.0	-27.0	230.8965
111.0	-26.0	179.3155
111.0	-25.0	125.12
111.0	-24.0	149.1644
111.0	-23.0	293.0378
111.0	-22.0	317.8951
111.0	-21.0	306.1734
111.0	-20.0	123.4243
111.0	-19.0	218.8248
111.0	-18.0	308.1577
111.0	-17.0	349.6647
111.0	-16.0	369.9406
111.0	-15.0	363.8069
111.0	-14.0	371.3601
111.0	-13.0	339.8549
111.0	-12.0	280.8501
111.0	-11.0	350.7782
111.0	-10.0	143.6197
111.0	-9.0	150.1284
111.0	-8.0	95.4962
111.0	-7.0	40.9257
111.0	-6.0	23.2199
111.0	-5.0	37.5665
111.0	-4.0	27.0466
111.0	-3.0	24.4802
111.0	-2.0	25.4606
111.0	-1.0	19.5119
111.0	0.0	26.5321
111.0	1.0	18.4384
111.0	2.0	31.805
111.0	3.0	15.9019
111.0	4.0	34.6338
111.0	5.0	16.9472
111.0	6.0	83.2789
111.0	7.0	119.7627
111.0	8.0	147.076
111.0	9.0	137.7384
111.0	10.0	220.6023
111.0	11.0	201.6535
111.0	12.0	232.4495
111.0	13.0	174.058
111.0	14.0	152.5062
111.0	15.0	79.3397
111.0	16.0	67.2093
111.0	17.0	57.3581
111.0	18.0	61.9444
111.0	19.0	23.4467
111.0	20.0	5.3514
111.0	21.0	1.4765
111.0	22.0	-31.4402
111.0	23.0	-28.7515
111.0	24.0	-46.1513
111.0	25.0	-61.5976
111.0	26.0	-73.0682
111.0	27.0	-59.1319
111.0	28.0	-53.7822
111.0	29.0	-22.3922
111.0	30.0	-78.7806
111.0	31.0	-89.7878
111.0	32.0	-88.2951
111.0	33.0	-69.8747
111.0	34.0	-125.1812
111.0	35.0	-128.5458
111.0	36.0	-115.389
111.0	37.0	-161.3266
111.0	38.0	-145.9962
111.0	39.0	-152.9461
111.0	40.0	-120.3643
111.0	41.0	-122.3239
111.0	42.0	-160.5884
111.0	43.0	-144.4331
111.0	44.0	-140.8057
111.0	45.0	-124.9637
111.0	46.0	-134.0164
111.0	47.0	-155.2772
111.0	48.0	-146.5763
111.0	49.0	-136.6413
111.0	50.0	-179.03
111.0	51.0	-142.6546
111.0	52.0	-130.3473
111.0	53.0	-145.6305
111.0	54.0	-146.0902
111.0	55.0	-167.9141
111.0	56.0	-158.8189
111.0	57.0	-80.3747
111.0	58.0	-75.2042
111.0	59.0	-70.4629
111.0	60.0	-64.7283
111.0	61.0	-62.6247
111.0	62.0	-54.0145
111.0	63.0	-51.5715
111.0	64.0	-60.0211
111.0	65.0	-43.3829
111.0	66.0	-52.3492
111.0	67.0	-58.4185
111.0	68.0	-28.1398
111.0	69.0	-46.6407
111.0	70.0	-24.6057
111.0	71.0	-13.2897
111.0	72.0	-19.4581
111.0	73.0	-21.9031
111.0	74.0	-33.8507
111.0	75.0	-18.1171
111.0	76.0	-9.1628
111.0	77.0	17.9753
111.0	78.0	20.363
111.0	79.0	110.8871
111.0	80.0	201.9456
111.0	81.0	194.3062
111.0	82.0	228.6517
111.0	83.0	273.9558
111.0	84.0	245.5692
111.0	85.0	308.1336
111.0	86.0	298.0425
111.0	87.0	289.8065
111.0	88.0	271.696
111.0	89.0	308.5547
111.0	90.0	311.9104
112.0	-90.0	-320.9156
112.0	-89.0	-359.9981
112.0	-88.0	-375.9306
112.0	-87.0	-390.0604
112.0	-86.0	-381.1025
112.0	-85.0	-348.9474
112.0	-84.0	-337.0297
112.0	-83.0	-356.4084
112.0	-82.0	-358.0388
112.0	-81.0	-389.5589
112.0	-80.0	-394.8729
112.0	-79.0	-358.2227
112.0	-78.0	-341.2022
112.0	-77.0	-333.3032
112.0	-76.0	-370.3156
112.0	-75.0	-403.9968
112.0	-74.0	-407.2282
112.0	-73.0	-383.9231
112.0	-72.0	-345.7314
112.0	-71.0	-317.1429
112.0	-70.0	-269.0262
112.0	-69.0	-204.9722
112.0	-68.0	-148.7653
112.0	-67.0	-93.091
112.0	-66.0	-32.9453
112.0	-65.0	139.9035
112.0	-64.0	162.6711
112.0	-63.0	235.9771
112.0	-62.0	271.3936
112.0	-61.0	288.1916
112.0	-60.0	299.7949
112.0	-59.0	310.5596
112.0	-58.0	306.8081
112.0	-57.0	308.2311
112.0	-56.0	299.9247
112.0	-55.0	285.6004
112.0	-54.0	260.5805
112.0	-53.0	260.6411
112.0	-52.0	255.9985
112.0	-51.0	246.1189
112.0	-50.0	222.9702
112.0	-49.0	247.6461
112.0	-48.0	254.0335
112.0	-47.0	260.284
112.0	-46.0	265.0411
112.0	-45.0	271.8776
112.0	-44.0	273.9614
112.0	-43.0	278.6611
112.0	-42.0	279.0502
112.0	-41.0	290.2718
112.0	-40.0	279.0219
112.0	-39.0	289.9466
112.0	-38.0	318.3057
112.0	-37.0	331.9836
112.0	-36.0	333.0573
112.0	-35.0	197.5484
112.0	-34.0	154.8321
112.0	-33.0	273.2794
112.0	-32.0	307.7032
112.0	-31.0	316.9126
112.0	-30.0	323.162
112.0	-29.0	316.4783
112.0	-28.0	242.3364
112.0	-27.0	66.8577
112.0	-26.0	75.7223
112.0	-25.0	50.0118
112.0	-24.0	74.507
112.0	-23.0	193.8275
112.0	-22.0	299.0729
112.0	-21.0	112.2601
112.0	-20.0	82.8412
112.0	-19.0	152.7431
112.0	-18.0	341.8393
112.0	-17.0	325.4539
112.0	-16.0	303.4379
112.0	-15.0	302.0165
112.0	-14.0	347.7269
112.0	-13.0	298.3637
112.0	-12.0	277.5688
112.0	-11.0	316.3731
112.0	-10.0	166.285
112.0	-9.0	150.5394
112.0	-8.0	50.1
112.0	-7.0	25.6725
112.0	-6.0	40.8176
112.0	-5.0	13.6004
112.0	-4.0	31.1074
112.0	-3.0	31.7169
112.0	-2.0	33.2067
112.0	-1.0	21.6299
112.0	0.0	19.971
112.0	1.0	38.4063
112.0	2.0	26.8305
112.0	3.0	23.9897
112.0	4.0	22.8633
112.0	5.0	26.8611
112.0	6.0	111.8977
112.0	7.0	141.0334
112.0	8.0	130.6724
112.0	9.0	118.0456
112.0	10.0	170.6693
112.0	11.0	278.9091
112.0	12.0	286.3772
112.0	13.0	230.5183
112.0	14.0	126.744
112.0	15.0	113.0385
112.0	16.0	54.5036
112.0	17.0	47.9411
112.0	18.0	121.3093
112.0	19.0	13.8926
112.0	20.0	-1.9689
112.0	21.0	-6.2446
112.0	22.0	-27.3929
112.0	23.0	-36.5859
112.0	24.0	-42.42
112.0	25.0	-65.3118
112.0	26.0	-63.6202
112.0	27.0	-47.4129
112.0	28.0	-59.8033
112.0	29.0	-28.4328
112.0	30.0	-41.3709
112.0	31.0	-46.1582
112.0	32.0	-56.9453
112.0	33.0	-38.6355
112.0	34.0	-116.6776
112.0	35.0	-64.2755
112.0	36.0	-102.6632
112.0	37.0	-136.8287
112.0	38.0	-141.1293
112.0	39.0	-153.6939
112.0	40.0	-126.0945
112.0	41.0	-159.9533
112.0	42.0	-176.9054
112.0	43.0	-130.2726
112.0	44.0	-132.098
112.0	45.0	-136.2281
112.0	46.0	-122.5059
112.0	47.0	-138.5486
112.0	48.0	-128.9009
112.0	49.0	-118.5649
112.0	50.0	-169.5545
112.0	51.0	-127.2963
112.0	52.0	-127.0793
112.0	53.0	-130.4009
112.0	54.0	-150.8063
112.0	55.0	-164.0479
112.0	56.0	-132.609
112.0	57.0	-108.7228
112.0	58.0	-93.3763
112.0	59.0	-84.5906
112.0	60.0	-86.1789
112.0	61.0	-73.6459
112.0	62.0	-39.4668
112.0	63.0	-68.6475
112.0	64.0	-44.4149
112.0	65.0	-45.3766
112.0	66.0	-33.3088
112.0	67.0	-42.0533
112.0	68.0	-42.551
112.0	69.0	-13.8494
112.0	70.0	-18.0287
112.0	71.0	-30.1859
112.0	72.0	-13.2068
112.0	73.0	-29.539
112.0	74.0	-27.3247
112.0	75.0	-8.6401
112.0	76.0	-4.3646
112.0	77.0	19.182
112.0	78.0	16.6523
112.0	79.0	144.3753
112.0	80.0	201.3722
112.0	81.0	199.2632
112.0	82.0	231.5326
112.0	83.0	270.5953
112.0	84.0	243.9441
112.0	85.0	309.3389
112.0	86.0	299.3895
112.0	87.0	290.5983
112.0	88.0	274.6722
112.0	89.0	309.0595
112.0	90.0	311.9104
113.0	-90.0	-320.9156
113.0	-89.0	-359.9935
113.0	-88.0	-376.2345
113.0	-87.0	-390.2685
113.0	-86.0	-380.7277
113.0	-85.0	-346.6613
113.0	-84.0	-337.2527
113.0	-83.0	-354.7685
113.0	-82.0	-354.4507
113.0	-81.0	-385.898
113.0	-80.0	-386.816
113.0	-79.0	-353.6503
113.0	-78.0	-349.6505
113.0	-77.0	-349.3811
113.0	-76.0	-388.4486
113.0	-75.0	-416.217
113.0	-74.0	-411.983
113.0	-73.0	-373.1759
113.0	-72.0	-321.901
113.0	-71.0	-285.1134
113.0	-70.0	-262.136
113.0	-69.0	-206.7712
113.0	-68.0	-130.0849
113.0	-67.0	-117.161
113.0	-66.0	-47.2835
113.0	-65.0	98.9143
113.0	-64.0	178.7417
113.0	-63.0	233.3443
113.0	-62.0	266.5457
113.0	-61.0	290.5722
113.0	-60.0	301.6962
113.0	-59.0	310.3653
113.0	-58.0	308.6333
113.0	-57.0	302.1855
113.0	-56.0	297.7236
113.0	-55.0	291.2466
113.0	-54.0	261.9557
113.0	-53.0	256.2782
113.0	-52.0	245.1514
113.0	-51.0	248.7918
113.0	-50.0	225.3663
113.0	-49.0	246.2523
113.0	-48.0	258.8906
113.0	-47.0	263.5324
113.0	-46.0	261.0058
113.0	-45.0	262.3541
113.0	-44.0	276.9157
113.0	-43.0	285.0225
113.0	-42.0	279.9484
113.0	-41.0	295.8956
113.0	-40.0	289.2208
113.0	-39.0	289.084
113.0	-38.0	289.3767
113.0	-37.0	329.7802
113.0	-36.0	313.1168
113.0	-35.0	250.7788
113.0	-34.0	173.4299
113.0	-33.0	225.6214
113.0	-32.0	291.5481
113.0	-31.0	299.2005
113.0	-30.0	293.9927
113.0	-29.0	153.4247
113.0	-28.0	30.6559
113.0	-27.0	16.1723
113.0	-26.0	11.5194
113.0	-25.0	21.6057
113.0	-24.0	25.7176
113.0	-23.0	26.2321
113.0	-22.0	96.4635
113.0	-21.0	42.5154
113.0	-20.0	51.9592
113.0	-19.0	97.662
113.0	-18.0	144.3653
113.0	-17.0	197.4842
113.0	-16.0	230.1014
113.0	-15.0	329.3186
113.0	-14.0	315.231
113.0	-13.0	370.4022
113.0	-12.0	283.6079
113.0	-11.0	288.8383
113.0	-10.0	100.4295
113.0	-9.0	176.2291
113.0	-8.0	107.6278
113.0	-7.0	35.886
113.0	-6.0	28.1647
113.0	-5.0	31.3068
113.0	-4.0	32.0113
113.0	-3.0	39.82
113.0	-2.0	43.8268
113.0	-1.0	20.7727
113.0	0.0	-10.6648
113.0	1.0	21.0166
113.0	2.0	10.828
113.0	3.0	28.1988
113.0	4.0	20.6547
113.0	5.0	32.8259
113.0	6.0	110.5224
113.0	7.0	148.6758
113.0	8.0	79.5486
113.0	9.0	181.9174
113.0	10.0	169.9993
113.0	11.0	294.0695
113.0	12.0	273.4888
113.0	13.0	290.2114
113.0	14.0	187.6827
113.0	15.0	218.2766
113.0	16.0	106.7861
113.0	17.0	128.2611
113.0	18.0	121.1114
113.0	19.0	38.052
113.0	20.0	3.3312
113.0	21.0	-9.3379
113.0	22.0	-21.62
113.0	23.0	0.5678
113.0	24.0	-47.068
113.0	25.0	-70.1512
113.0	26.0	-49.0687
113.0	27.0	-37.2553
113.0	28.0	-24.2827
113.0	29.0	-23.3413
113.0	30.0	-26.5499
113.0	31.0	-28.368
113.0	32.0	-51.8196
113.0	33.0	-29.7727
113.0	34.0	-47.2398
113.0	35.0	-70.1196
113.0	36.0	-104.3695
113.0	37.0	-116.6348
113.0	38.0	-119.843
113.0	39.0	-132.9809
113.0	40.0	-115.2055
113.0	41.0	-151.6225
113.0	42.0	-170.2492
113.0	43.0	-127.0334
113.0	44.0	-126.785
113.0	45.0	-142.9172
113.0	46.0	-126.4674
113.0	47.0	-135.1386
113.0	48.0	-123.6278
113.0	49.0	-128.6272
113.0	50.0	-120.2335
113.0	51.0	-144.7623
113.0	52.0	-118.9095
113.0	53.0	-125.0054
113.0	54.0	-122.0576
113.0	55.0	-161.0044
113.0	56.0	-161.867
113.0	57.0	-148.1256
113.0	58.0	-45.993
113.0	59.0	-108.9417
113.0	60.0	-101.0174
113.0	61.0	-67.828
113.0	62.0	-72.7166
113.0	63.0	-54.9962
113.0	64.0	-48.652
113.0	65.0	-33.6357
113.0	66.0	-37.6077
113.0	67.0	-32.1509
113.0	68.0	-53.4486
113.0	69.0	-7.4656
113.0	70.0	-16.4477
113.0	71.0	-31.5084
113.0	72.0	-8.9686
113.0	73.0	-29.1099
113.0	74.0	-17.2295
113.0	75.0	-2.7163
113.0	76.0	11.7009
113.0	77.0	21.1371
113.0	78.0	12.672
113.0	79.0	137.3075
113.0	80.0	200.2048
113.0	81.0	208.1068
113.0	82.0	237.7169
113.0	83.0	268.8599
113.0	84.0	254.484
113.0	85.0	302.5089
113.0	86.0	297.722
113.0	87.0	291.2317
113.0	88.0	278.5962
113.0	89.0	309.7538
113.0	90.0	311.9104
114.0	-90.0	-320.9156
114.0	-89.0	-360.0244
114.0	-88.0	-377.0648
114.0	-87.0	-390.2752
114.0	-86.0	-380.3067
114.0	-85.0	-346.0569
114.0	-84.0	-335.597
114.0	-83.0	-352.4679
114.0	-82.0	-351.4368
114.0	-81.0	-379.965
114.0	-80.0	-376.2247
114.0	-79.0	-350.9327
114.0	-78.0	-360.3678
114.0	-77.0	-367.5285
114.0	-76.0	-403.2113
114.0	-75.0	-424.5173
114.0	-74.0	-412.5026
114.0	-73.0	-359.0691
114.0	-72.0	-308.3764
114.0	-71.0	-265.1544
114.0	-70.0	-253.8496
114.0	-69.0	-208.0872
114.0	-68.0	-124.5749
114.0	-67.0	-80.917
114.0	-66.0	13.7418
114.0	-65.0	113.9324
114.0	-64.0	168.7865
114.0	-63.0	219.6639
114.0	-62.0	262.2041
114.0	-61.0	298.0134
114.0	-60.0	298.5199
114.0	-59.0	313.8957
114.0	-58.0	310.7015
114.0	-57.0	311.0976
114.0	-56.0	306.6932
114.0	-55.0	304.0825
114.0	-54.0	271.5009
114.0	-53.0	264.9697
114.0	-52.0	239.0869
114.0	-51.0	243.2888
114.0	-50.0	225.5542
114.0	-49.0	246.0332
114.0	-48.0	258.8572
114.0	-47.0	265.0523
114.0	-46.0	268.954
114.0	-45.0	281.4751
114.0	-44.0	278.2686
114.0	-43.0	289.519
114.0	-42.0	295.0199
114.0	-41.0	299.6136
114.0	-40.0	302.3222
114.0	-39.0	310.6991
114.0	-38.0	302.7392
114.0	-37.0	330.2535
114.0	-36.0	297.619
114.0	-35.0	245.3779
114.0	-34.0	90.5786
114.0	-33.0	71.4937
114.0	-32.0	264.0465
114.0	-31.0	276.1916
114.0	-30.0	73.5576
114.0	-29.0	4.2288
114.0	-28.0	13.5077
114.0	-27.0	-2.5608
114.0	-26.0	-10.6424
114.0	-25.0	-20.1472
114.0	-24.0	-8.8564
114.0	-23.0	3.1723
114.0	-22.0	51.3191
114.0	-21.0	14.4756
114.0	-20.0	42.6452
114.0	-19.0	79.8502
114.0	-18.0	109.1382
114.0	-17.0	164.7742
114.0	-16.0	297.3633
114.0	-15.0	352.2667
114.0	-14.0	338.6595
114.0	-13.0	373.485
114.0	-12.0	302.4099
114.0	-11.0	294.4131
114.0	-10.0	110.727
114.0	-9.0	207.1909
114.0	-8.0	62.0764
114.0	-7.0	27.5597
114.0	-6.0	40.8527
114.0	-5.0	28.3526
114.0	-4.0	41.7362
114.0	-3.0	35.1202
114.0	-2.0	29.6087
114.0	-1.0	33.1241
114.0	0.0	18.5344
114.0	1.0	-14.4923
114.0	2.0	-10.4784
114.0	3.0	3.3444
114.0	4.0	31.3512
114.0	5.0	50.9541
114.0	6.0	132.1053
114.0	7.0	140.8943
114.0	8.0	57.3883
114.0	9.0	47.3679
114.0	10.0	108.1617
114.0	11.0	128.82
114.0	12.0	309.4946
114.0	13.0	287.6877
114.0	14.0	308.3893
114.0	15.0	279.5699
114.0	16.0	79.0711
114.0	17.0	209.7397
114.0	18.0	185.1527
114.0	19.0	77.4585
114.0	20.0	17.8574
114.0	21.0	0.5308
114.0	22.0	5.2524
114.0	23.0	-11.3274
114.0	24.0	-48.0002
114.0	25.0	-53.0051
114.0	26.0	-89.6941
114.0	27.0	-46.8863
114.0	28.0	-40.6368
114.0	29.0	-64.6832
114.0	30.0	-28.3458
114.0	31.0	-20.4753
114.0	32.0	-39.4493
114.0	33.0	-31.4254
114.0	34.0	-34.3333
114.0	35.0	-55.2999
114.0	36.0	-47.5027
114.0	37.0	-70.8057
114.0	38.0	-63.2517
114.0	39.0	-117.2692
114.0	40.0	-143.2698
114.0	41.0	-139.0513
114.0	42.0	-158.9392
114.0	43.0	-132.2047
114.0	44.0	-132.2678
114.0	45.0	-151.7558
114.0	46.0	-133.1653
114.0	47.0	-115.6895
114.0	48.0	-115.8189
114.0	49.0	-103.8383
114.0	50.0	-107.0286
114.0	51.0	-114.1511
114.0	52.0	-118.9959
114.0	53.0	-133.8064
114.0	54.0	-124.2055
114.0	55.0	-149.2855
114.0	56.0	-194.1822
114.0	57.0	-154.4214
114.0	58.0	-56.1371
114.0	59.0	-124.3982
114.0	60.0	-128.3835
114.0	61.0	-76.6916
114.0	62.0	-64.0467
114.0	63.0	-60.2119
114.0	64.0	-31.7414
114.0	65.0	-29.5915
114.0	66.0	-42.0737
114.0	67.0	-46.7466
114.0	68.0	-52.6077
114.0	69.0	-31.1407
114.0	70.0	-20.5687
114.0	71.0	-19.9456
114.0	72.0	-7.8981
114.0	73.0	-39.2601
114.0	74.0	-7.5863
114.0	75.0	-4.5373
114.0	76.0	12.1609
114.0	77.0	8.4262
114.0	78.0	8.4879
114.0	79.0	134.8583
114.0	80.0	209.0875
114.0	81.0	212.2167
114.0	82.0	254.2803
114.0	83.0	254.2671
114.0	84.0	260.739
114.0	85.0	308.7208
114.0	86.0	296.0058
114.0	87.0	292.4459
114.0	88.0	275.2028
114.0	89.0	310.5519
114.0	90.0	311.9104
115.0	-90.0	-320.9156
115.0	-89.0	-360.1521
115.0	-88.0	-378.4382
115.0	-87.0	-390.4655
115.0	-86.0	-379.2378
115.0	-85.0	-344.6251
115.0	-84.0	-336.5668
115.0	-83.0	-353.866
115.0	-82.0	-349.9089
115.0	-81.0	-372.1318
115.0	-80.0	-367.2027
115.0	-79.0	-348.5671
115.0	-78.0	-371.0629
115.0	-77.0	-384.2718
115.0	-76.0	-410.8222
115.0	-75.0	-427.4825
115.0	-74.0	-408.6022
115.0	-73.0	-344.875
115.0	-72.0	-303.2571
115.0	-71.0	-265.2226
115.0	-70.0	-251.5929
115.0	-69.0	-207.4247
115.0	-68.0	-120.1888
115.0	-67.0	-27.3931
115.0	-66.0	30.0294
115.0	-65.0	131.7059
115.0	-64.0	159.2819
115.0	-63.0	234.0269
115.0	-62.0	256.7123
115.0	-61.0	297.9845
115.0	-60.0	305.2809
115.0	-59.0	307.2488
115.0	-58.0	310.0677
115.0	-57.0	309.9115
115.0	-56.0	304.3319
115.0	-55.0	303.4642
115.0	-54.0	276.2302
115.0	-53.0	265.822
115.0	-52.0	250.1312
115.0	-51.0	254.0452
115.0	-50.0	237.5304
115.0	-49.0	242.294
115.0	-48.0	249.2133
115.0	-47.0	264.2165
115.0	-46.0	272.4851
115.0	-45.0	281.3652
115.0	-44.0	277.8398
115.0	-43.0	283.3109
115.0	-42.0	290.7983
115.0	-41.0	294.8312
115.0	-40.0	301.5766
115.0	-39.0	304.3662
115.0	-38.0	321.793
115.0	-37.0	327.1439
115.0	-36.0	319.0323
115.0	-35.0	59.0759
115.0	-34.0	30.0862
115.0	-33.0	-15.822
115.0	-32.0	5.8962
115.0	-31.0	35.3551
115.0	-30.0	7.6293
115.0	-29.0	-24.0966
115.0	-28.0	-6.2429
115.0	-27.0	-15.976
115.0	-26.0	-14.2591
115.0	-25.0	-13.2021
115.0	-24.0	-36.8796
115.0	-23.0	10.7901
115.0	-22.0	-0.0029
115.0	-21.0	19.771
115.0	-20.0	22.8818
115.0	-19.0	41.5618
115.0	-18.0	110.286
115.0	-17.0	161.9215
115.0	-16.0	366.0355
115.0	-15.0	389.908
115.0	-14.0	394.1217
115.0	-13.0	384.3577
115.0	-12.0	373.2618
115.0	-11.0	316.5809
115.0	-10.0	162.0652
115.0	-9.0	197.7576
115.0	-8.0	73.5825
115.0	-7.0	52.1535
115.0	-6.0	41.0212
115.0	-5.0	44.6171
115.0	-4.0	28.0233
115.0	-3.0	-9.5384
115.0	-2.0	29.8518
115.0	-1.0	22.1316
115.0	0.0	30.1856
115.0	1.0	-23.5653
115.0	2.0	-44.2745
115.0	3.0	-31.7617
115.0	4.0	-14.9747
115.0	5.0	7.9643
115.0	6.0	81.6659
115.0	7.0	132.4669
115.0	8.0	146.8916
115.0	9.0	152.6503
115.0	10.0	122.0193
115.0	11.0	83.7716
115.0	12.0	297.0336
115.0	13.0	305.5577
115.0	14.0	283.7785
115.0	15.0	282.3622
115.0	16.0	218.8095
115.0	17.0	195.7531
115.0	18.0	254.8658
115.0	19.0	151.8369
115.0	20.0	55.6012
115.0	21.0	6.4835
115.0	22.0	0.8402
115.0	23.0	-27.9201
115.0	24.0	-41.9539
115.0	25.0	-43.9418
115.0	26.0	-37.6635
115.0	27.0	-13.8928
115.0	28.0	-29.0112
115.0	29.0	-58.9565
115.0	30.0	-28.4881
115.0	31.0	-39.2652
115.0	32.0	-25.0324
115.0	33.0	-29.8118
115.0	34.0	-29.8202
115.0	35.0	-37.6733
115.0	36.0	-31.4205
115.0	37.0	-28.1272
115.0	38.0	-27.417
115.0	39.0	-41.4392
115.0	40.0	-121.8223
115.0	41.0	-138.3797
115.0	42.0	-162.0782
115.0	43.0	-134.1642
115.0	44.0	-128.5359
115.0	45.0	-129.215
115.0	46.0	-106.9335
115.0	47.0	-102.3951
115.0	48.0	-103.0101
115.0	49.0	-96.2048
115.0	50.0	-90.0915
115.0	51.0	-94.1843
115.0	52.0	-117.6945
115.0	53.0	-128.0582
115.0	54.0	-115.367
115.0	55.0	-121.1926
115.0	56.0	-127.6718
115.0	57.0	-116.5334
115.0	58.0	-90.8027
115.0	59.0	-101.5961
115.0	60.0	-118.2954
115.0	61.0	-92.5485
115.0	62.0	-72.3715
115.0	63.0	-55.8556
115.0	64.0	-60.4055
115.0	65.0	-47.9827
115.0	66.0	-28.9069
115.0	67.0	-27.112
115.0	68.0	-43.6467
115.0	69.0	-30.2251
115.0	70.0	-30.7673
115.0	71.0	-7.8662
115.0	72.0	-14.0664
115.0	73.0	-31.8451
115.0	74.0	-19.6882
115.0	75.0	-1.8525
115.0	76.0	-10.0097
115.0	77.0	5.1732
115.0	78.0	31.0607
115.0	79.0	144.6722
115.0	80.0	217.3433
115.0	81.0	219.6314
115.0	82.0	259.1764
115.0	83.0	240.7373
115.0	84.0	264.8651
115.0	85.0	319.0391
115.0	86.0	295.4959
115.0	87.0	292.3679
115.0	88.0	259.2528
115.0	89.0	311.1938
115.0	90.0	311.9104
116.0	-90.0	-320.9156
116.0	-89.0	-360.3962
116.0	-88.0	-379.5157
116.0	-87.0	-390.4783
116.0	-86.0	-378.3053
116.0	-85.0	-343.988
116.0	-84.0	-336.047
116.0	-83.0	-356.3042
116.0	-82.0	-348.5941
116.0	-81.0	-363.6184
116.0	-80.0	-360.3524
116.0	-79.0	-346.8737
116.0	-78.0	-379.1486
116.0	-77.0	-395.0542
116.0	-76.0	-414.5559
116.0	-75.0	-425.0236
116.0	-74.0	-405.2231
116.0	-73.0	-330.478
116.0	-72.0	-305.9201
116.0	-71.0	-277.74
116.0	-70.0	-250.5107
116.0	-69.0	-205.835
116.0	-68.0	-120.6451
116.0	-67.0	-36.2827
116.0	-66.0	54.2491
116.0	-65.0	114.774
116.0	-64.0	164.5613
116.0	-63.0	228.9004
116.0	-62.0	257.0313
116.0	-61.0	289.8165
116.0	-60.0	306.1882
116.0	-59.0	310.5526
116.0	-58.0	318.5913
116.0	-57.0	305.5786
116.0	-56.0	290.8874
116.0	-55.0	294.2706
116.0	-54.0	277.7319
116.0	-53.0	270.9479
116.0	-52.0	257.0243
116.0	-51.0	257.4525
116.0	-50.0	216.9558
116.0	-49.0	272.8337
116.0	-48.0	259.5458
116.0	-47.0	257.4532
116.0	-46.0	267.2612
116.0	-45.0	280.0946
116.0	-44.0	265.8892
116.0	-43.0	287.9206
116.0	-42.0	286.8741
116.0	-41.0	313.3601
116.0	-40.0	316.2532
116.0	-39.0	311.745
116.0	-38.0	271.8187
116.0	-37.0	313.1341
116.0	-36.0	277.7285
116.0	-35.0	12.7731
116.0	-34.0	13.1191
116.0	-33.0	14.5622
116.0	-32.0	-57.3781
116.0	-31.0	-53.593
116.0	-30.0	-22.9113
116.0	-29.0	-29.3617
116.0	-28.0	-26.6677
116.0	-27.0	-7.679
116.0	-26.0	-49.4211
116.0	-25.0	-22.2015
116.0	-24.0	-18.3359
116.0	-23.0	-5.9516
116.0	-22.0	19.2545
116.0	-21.0	41.0241
116.0	-20.0	22.979
116.0	-19.0	41.6047
116.0	-18.0	87.7625
116.0	-17.0	176.7382
116.0	-16.0	346.6916
116.0	-15.0	393.9157
116.0	-14.0	394.2826
116.0	-13.0	407.7118
116.0	-12.0	403.7848
116.0	-11.0	272.6693
116.0	-10.0	198.3322
116.0	-9.0	161.4884
116.0	-8.0	39.0645
116.0	-7.0	61.9866
116.0	-6.0	42.9811
116.0	-5.0	38.1467
116.0	-4.0	47.6451
116.0	-3.0	45.3693
116.0	-2.0	49.8096
116.0	-1.0	39.3383
116.0	0.0	18.2835
116.0	1.0	15.7063
116.0	2.0	-35.5395
116.0	3.0	-33.904
116.0	4.0	-51.9887
116.0	5.0	-42.1662
116.0	6.0	32.4481
116.0	7.0	82.5434
116.0	8.0	150.1787
116.0	9.0	131.0996
116.0	10.0	152.0178
116.0	11.0	172.7377
116.0	12.0	253.636
116.0	13.0	310.4589
116.0	14.0	288.2709
116.0	15.0	297.1923
116.0	16.0	296.322
116.0	17.0	283.6313
116.0	18.0	270.3386
116.0	19.0	202.1049
116.0	20.0	89.9354
116.0	21.0	32.3104
116.0	22.0	-3.671
116.0	23.0	-13.2382
116.0	24.0	-33.0681
116.0	25.0	-57.6824
116.0	26.0	-42.8822
116.0	27.0	-65.5118
116.0	28.0	-22.6739
116.0	29.0	-10.2846
116.0	30.0	-15.8296
116.0	31.0	-82.6076
116.0	32.0	-28.1644
116.0	33.0	-22.6093
116.0	34.0	-27.2328
116.0	35.0	-27.8109
116.0	36.0	-18.337
116.0	37.0	-18.5762
116.0	38.0	-21.8477
116.0	39.0	-22.2939
116.0	40.0	-33.2112
116.0	41.0	-119.0044
116.0	42.0	-155.8601
116.0	43.0	-128.1099
116.0	44.0	-119.4984
116.0	45.0	-103.0338
116.0	46.0	-120.2958
116.0	47.0	-81.5999
116.0	48.0	-92.8167
116.0	49.0	-93.8958
116.0	50.0	-82.6387
116.0	51.0	-94.0135
116.0	52.0	-72.5992
116.0	53.0	-122.271
116.0	54.0	-122.6965
116.0	55.0	-97.8408
116.0	56.0	-109.1256
116.0	57.0	-118.1202
116.0	58.0	-106.2909
116.0	59.0	-98.2365
116.0	60.0	-107.7522
116.0	61.0	-90.3162
116.0	62.0	-44.3851
116.0	63.0	-78.4237
116.0	64.0	-69.0904
116.0	65.0	-66.7932
116.0	66.0	-47.6967
116.0	67.0	-38.6788
116.0	68.0	-7.9694
116.0	69.0	-17.7856
116.0	70.0	-24.3935
116.0	71.0	-10.0148
116.0	72.0	-7.0092
116.0	73.0	-36.6613
116.0	74.0	5.8683
116.0	75.0	-6.2705
116.0	76.0	4.4776
116.0	77.0	-7.099
116.0	78.0	21.0711
116.0	79.0	158.8896
116.0	80.0	227.2484
116.0	81.0	220.0655
116.0	82.0	247.4674
116.0	83.0	249.9855
116.0	84.0	275.0951
116.0	85.0	312.7816
116.0	86.0	295.3333
116.0	87.0	289.9533
116.0	88.0	234.0337
116.0	89.0	311.3112
116.0	90.0	311.9104
117.0	-90.0	-320.9156
117.0	-89.0	-360.723
117.0	-88.0	-379.8267
117.0	-87.0	-390.383
117.0	-86.0	-377.827
117.0	-85.0	-343.7921
117.0	-84.0	-337.4429
117.0	-83.0	-360.249
117.0	-82.0	-349.4502
117.0	-81.0	-355.6864
117.0	-80.0	-355.9619
117.0	-79.0	-346.6978
117.0	-78.0	-382.3644
117.0	-77.0	-401.8222
117.0	-76.0	-411.535
117.0	-75.0	-417.7152
117.0	-74.0	-402.1103
117.0	-73.0	-320.8315
117.0	-72.0	-312.2982
117.0	-71.0	-291.3666
117.0	-70.0	-252.1105
117.0	-69.0	-204.1093
117.0	-68.0	-123.1516
117.0	-67.0	-48.4552
117.0	-66.0	46.8843
117.0	-65.0	135.4166
117.0	-64.0	183.4879
117.0	-63.0	229.2213
117.0	-62.0	265.9797
117.0	-61.0	287.0449
117.0	-60.0	305.8151
117.0	-59.0	308.3463
117.0	-58.0	312.4305
117.0	-57.0	305.1393
117.0	-56.0	304.998
117.0	-55.0	296.8461
117.0	-54.0	290.3253
117.0	-53.0	256.8225
117.0	-52.0	265.2461
117.0	-51.0	246.832
117.0	-50.0	259.6991
117.0	-49.0	228.3051
117.0	-48.0	238.0703
117.0	-47.0	263.7607
117.0	-46.0	268.1615
117.0	-45.0	282.2875
117.0	-44.0	287.5372
117.0	-43.0	304.0462
117.0	-42.0	290.247
117.0	-41.0	302.5674
117.0	-40.0	314.4137
117.0	-39.0	314.5419
117.0	-38.0	350.9328
117.0	-37.0	272.6126
117.0	-36.0	255.0602
117.0	-35.0	-7.6414
117.0	-34.0	-2.4788
117.0	-33.0	-9.2995
117.0	-32.0	-15.5177
117.0	-31.0	-33.7381
117.0	-30.0	-29.5287
117.0	-29.0	-27.2613
117.0	-28.0	-46.3474
117.0	-27.0	-30.7435
117.0	-26.0	-50.3286
117.0	-25.0	-92.0723
117.0	-24.0	-36.3995
117.0	-23.0	-30.3315
117.0	-22.0	-27.1379
117.0	-21.0	-11.8536
117.0	-20.0	-20.149
117.0	-19.0	36.7502
117.0	-18.0	63.7963
117.0	-17.0	148.5086
117.0	-16.0	353.5737
117.0	-15.0	372.4226
117.0	-14.0	382.1398
117.0	-13.0	380.2732
117.0	-12.0	389.4023
117.0	-11.0	257.5688
117.0	-10.0	190.4761
117.0	-9.0	169.3994
117.0	-8.0	37.9714
117.0	-7.0	71.5425
117.0	-6.0	59.0828
117.0	-5.0	59.1257
117.0	-4.0	60.6123
117.0	-3.0	51.1039
117.0	-2.0	56.4603
117.0	-1.0	3.131
117.0	0.0	32.6964
117.0	1.0	26.6031
117.0	2.0	30.1659
117.0	3.0	42.0854
117.0	4.0	13.4426
117.0	5.0	-21.4028
117.0	6.0	40.6028
117.0	7.0	55.838
117.0	8.0	47.7966
117.0	9.0	87.0506
117.0	10.0	126.9803
117.0	11.0	70.5643
117.0	12.0	91.6507
117.0	13.0	299.9017
117.0	14.0	314.698
117.0	15.0	275.9952
117.0	16.0	279.2443
117.0	17.0	283.8466
117.0	18.0	277.5518
117.0	19.0	244.3826
117.0	20.0	118.3094
117.0	21.0	29.5359
117.0	22.0	14.8869
117.0	23.0	8.4202
117.0	24.0	-25.8326
117.0	25.0	-65.0169
117.0	26.0	-71.0305
117.0	27.0	-59.5513
117.0	28.0	-31.438
117.0	29.0	-9.6758
117.0	30.0	-28.9204
117.0	31.0	-12.7241
117.0	32.0	-7.8357
117.0	33.0	-4.3975
117.0	34.0	-10.4788
117.0	35.0	-12.253
117.0	36.0	-16.0611
117.0	37.0	-26.2152
117.0	38.0	-13.7675
117.0	39.0	0.8407
117.0	40.0	-18.7559
117.0	41.0	-61.1117
117.0	42.0	-137.2627
117.0	43.0	-122.9528
117.0	44.0	-117.1785
117.0	45.0	-99.9403
117.0	46.0	-99.5619
117.0	47.0	-88.2706
117.0	48.0	-79.5682
117.0	49.0	-86.0474
117.0	50.0	-83.4823
117.0	51.0	-120.0766
117.0	52.0	-88.7657
117.0	53.0	-118.5931
117.0	54.0	-124.5694
117.0	55.0	-93.4011
117.0	56.0	-118.4994
117.0	57.0	-127.7705
117.0	58.0	-97.1231
117.0	59.0	-106.5123
117.0	60.0	-46.5683
117.0	61.0	-73.3998
117.0	62.0	1.1876
117.0	63.0	-72.8588
117.0	64.0	-53.0279
117.0	65.0	-50.4967
117.0	66.0	-55.1888
117.0	67.0	-33.9189
117.0	68.0	-1.8274
117.0	69.0	-26.3425
117.0	70.0	-26.6733
117.0	71.0	-16.2345
117.0	72.0	-9.6312
117.0	73.0	-32.3661
117.0	74.0	1.6316
117.0	75.0	-8.9008
117.0	76.0	-7.197
117.0	77.0	14.1474
117.0	78.0	41.9269
117.0	79.0	169.0291
117.0	80.0	236.9382
117.0	81.0	231.9758
117.0	82.0	230.5425
117.0	83.0	264.8013
117.0	84.0	272.9621
117.0	85.0	300.998
117.0	86.0	292.2173
117.0	87.0	288.2306
117.0	88.0	209.4603
117.0	89.0	310.5288
117.0	90.0	311.9104
118.0	-90.0	-320.9156
118.0	-89.0	-361.057
118.0	-88.0	-379.9138
118.0	-87.0	-390.7525
118.0	-86.0	-375.972
118.0	-85.0	-343.74
118.0	-84.0	-337.3138
118.0	-83.0	-364.5061
118.0	-82.0	-350.6278
118.0	-81.0	-349.4593
118.0	-80.0	-354.8657
118.0	-79.0	-347.2063
118.0	-78.0	-381.107
118.0	-77.0	-403.3346
118.0	-76.0	-404.7071
118.0	-75.0	-408.6626
118.0	-74.0	-403.6697
118.0	-73.0	-314.741
118.0	-72.0	-314.3258
118.0	-71.0	-298.8946
118.0	-70.0	-251.3191
118.0	-69.0	-199.5146
118.0	-68.0	-117.4931
118.0	-67.0	-45.7645
118.0	-66.0	51.0429
118.0	-65.0	172.5089
118.0	-64.0	188.5235
118.0	-63.0	225.75
118.0	-62.0	269.4825
118.0	-61.0	289.9766
118.0	-60.0	302.2916
118.0	-59.0	311.1422
118.0	-58.0	314.9818
118.0	-57.0	307.2303
118.0	-56.0	295.4659
118.0	-55.0	291.3042
118.0	-54.0	274.9686
118.0	-53.0	275.8134
118.0	-52.0	259.8508
118.0	-51.0	254.4447
118.0	-50.0	230.1346
118.0	-49.0	260.7065
118.0	-48.0	267.0353
118.0	-47.0	271.6584
118.0	-46.0	276.7891
118.0	-45.0	295.4288
118.0	-44.0	269.6627
118.0	-43.0	314.2994
118.0	-42.0	318.8206
118.0	-41.0	315.3169
118.0	-40.0	303.8847
118.0	-39.0	318.8083
118.0	-38.0	346.6013
118.0	-37.0	312.2181
118.0	-36.0	247.7401
118.0	-35.0	-22.6633
118.0	-34.0	-2.7105
118.0	-33.0	-26.9924
118.0	-32.0	-42.8117
118.0	-31.0	-41.3564
118.0	-30.0	-62.4858
118.0	-29.0	-48.0317
118.0	-28.0	-67.2925
118.0	-27.0	-69.7097
118.0	-26.0	-70.6816
118.0	-25.0	-102.6121
118.0	-24.0	-45.3859
118.0	-23.0	-92.4433
118.0	-22.0	-59.8966
118.0	-21.0	-37.831
118.0	-20.0	3.9918
118.0	-19.0	-1.068
118.0	-18.0	52.4847
118.0	-17.0	140.853
118.0	-16.0	360.9581
118.0	-15.0	377.0573
118.0	-14.0	380.5567
118.0	-13.0	393.4812
118.0	-12.0	384.3965
118.0	-11.0	272.1552
118.0	-10.0	172.239
118.0	-9.0	82.4846
118.0	-8.0	71.6153
118.0	-7.0	54.2423
118.0	-6.0	68.3638
118.0	-5.0	64.3782
118.0	-4.0	114.11
118.0	-3.0	65.8023
118.0	-2.0	103.9107
118.0	-1.0	137.9607
118.0	0.0	108.6424
118.0	1.0	64.7446
118.0	2.0	13.1543
118.0	3.0	36.1267
118.0	4.0	38.0032
118.0	5.0	41.8191
118.0	6.0	-12.6155
118.0	7.0	25.1485
118.0	8.0	41.5839
118.0	9.0	84.5201
118.0	10.0	37.6149
118.0	11.0	118.245
118.0	12.0	213.2405
118.0	13.0	252.4555
118.0	14.0	303.7683
118.0	15.0	309.8466
118.0	16.0	317.3988
118.0	17.0	288.4311
118.0	18.0	280.9448
118.0	19.0	279.1335
118.0	20.0	199.8641
118.0	21.0	129.6115
118.0	22.0	50.8029
118.0	23.0	16.6783
118.0	24.0	0.9827
118.0	25.0	-53.9659
118.0	26.0	-61.5602
118.0	27.0	-36.885
118.0	28.0	-50.3731
118.0	29.0	-44.439
118.0	30.0	-47.0994
118.0	31.0	-11.7391
118.0	32.0	-2.6686
118.0	33.0	3.598
118.0	34.0	-6.0665
118.0	35.0	-13.8201
118.0	36.0	-22.9353
118.0	37.0	-14.5385
118.0	38.0	-6.466
118.0	39.0	-10.4112
118.0	40.0	-0.3843
118.0	41.0	-47.644
118.0	42.0	-108.2604
118.0	43.0	-123.3068
118.0	44.0	-130.3671
118.0	45.0	-104.413
118.0	46.0	-106.9674
118.0	47.0	-72.5429
118.0	48.0	-70.6416
118.0	49.0	-64.5044
118.0	50.0	-84.9288
118.0	51.0	-107.3028
118.0	52.0	-95.946
118.0	53.0	-100.8865
118.0	54.0	-124.2615
118.0	55.0	-104.3852
118.0	56.0	-148.21
118.0	57.0	-157.877
118.0	58.0	-111.2508
118.0	59.0	-98.6413
118.0	60.0	-64.7076
118.0	61.0	-41.5089
118.0	62.0	-1.0801
118.0	63.0	-45.3302
118.0	64.0	-40.2666
118.0	65.0	-49.4676
118.0	66.0	-36.1069
118.0	67.0	-26.6031
118.0	68.0	-17.9695
118.0	69.0	-21.487
118.0	70.0	-25.1985
118.0	71.0	-26.3234
118.0	72.0	-11.4085
118.0	73.0	-27.5986
118.0	74.0	-13.7804
118.0	75.0	-13.3473
118.0	76.0	3.6604
118.0	77.0	20.3551
118.0	78.0	74.664
118.0	79.0	177.4729
118.0	80.0	234.9049
118.0	81.0	239.3279
118.0	82.0	250.8855
118.0	83.0	263.5172
118.0	84.0	284.3122
118.0	85.0	311.2336
118.0	86.0	291.1369
118.0	87.0	289.7872
118.0	88.0	194.0505
118.0	89.0	308.5698
118.0	90.0	311.9104
119.0	-90.0	-320.9156
119.0	-89.0	-361.3105
119.0	-88.0	-380.5284
119.0	-87.0	-390.9971
119.0	-86.0	-375.0187
119.0	-85.0	-344.7809
119.0	-84.0	-338.6977
119.0	-83.0	-367.9555
119.0	-82.0	-353.1828
119.0	-81.0	-343.7749
119.0	-80.0	-359.0931
119.0	-79.0	-349.3835
119.0	-78.0	-380.0428
119.0	-77.0	-403.5339
119.0	-76.0	-397.5617
119.0	-75.0	-398.5156
119.0	-74.0	-403.4271
119.0	-73.0	-317.6329
119.0	-72.0	-310.4261
119.0	-71.0	-298.1191
119.0	-70.0	-252.5104
119.0	-69.0	-204.2252
119.0	-68.0	-116.5883
119.0	-67.0	-45.0906
119.0	-66.0	50.6592
119.0	-65.0	171.4148
119.0	-64.0	208.0335
119.0	-63.0	232.5658
119.0	-62.0	267.1548
119.0	-61.0	288.9649
119.0	-60.0	307.35
119.0	-59.0	311.312
119.0	-58.0	315.1384
119.0	-57.0	309.7445
119.0	-56.0	299.9249
119.0	-55.0	287.7675
119.0	-54.0	302.3687
119.0	-53.0	303.7493
119.0	-52.0	275.5879
119.0	-51.0	261.0282
119.0	-50.0	223.0941
119.0	-49.0	246.0183
119.0	-48.0	259.9784
119.0	-47.0	294.3549
119.0	-46.0	281.0874
119.0	-45.0	282.9382
119.0	-44.0	300.2972
119.0	-43.0	295.6768
119.0	-42.0	304.6315
119.0	-41.0	322.1088
119.0	-40.0	316.1012
119.0	-39.0	306.2571
119.0	-38.0	331.2236
119.0	-37.0	311.177
119.0	-36.0	265.8919
119.0	-35.0	15.035
119.0	-34.0	-39.3155
119.0	-33.0	-42.8797
119.0	-32.0	-46.189
119.0	-31.0	-54.7335
119.0	-30.0	-58.7432
119.0	-29.0	-45.6932
119.0	-28.0	-77.9472
119.0	-27.0	-86.3752
119.0	-26.0	-45.8322
119.0	-25.0	-80.725
119.0	-24.0	-47.5635
119.0	-23.0	-71.7432
119.0	-22.0	-77.1837
119.0	-21.0	-48.8067
119.0	-20.0	-1.2108
119.0	-19.0	23.9506
119.0	-18.0	29.64
119.0	-17.0	60.8183
119.0	-16.0	136.8991
119.0	-15.0	257.8505
119.0	-14.0	309.3573
119.0	-13.0	370.592
119.0	-12.0	367.4298
119.0	-11.0	262.8419
119.0	-10.0	129.3343
119.0	-9.0	83.2172
119.0	-8.0	97.4013
119.0	-7.0	130.3375
119.0	-6.0	69.4086
119.0	-5.0	48.7228
119.0	-4.0	48.5251
119.0	-3.0	33.788
119.0	-2.0	88.1551
119.0	-1.0	150.8407
119.0	0.0	143.1772
119.0	1.0	91.9173
119.0	2.0	217.789
119.0	3.0	252.3778
119.0	4.0	207.1691
119.0	5.0	47.9693
119.0	6.0	63.7827
119.0	7.0	196.1128
119.0	8.0	175.0079
119.0	9.0	118.6939
119.0	10.0	55.6946
119.0	11.0	66.7363
119.0	12.0	70.2753
119.0	13.0	212.983
119.0	14.0	272.1129
119.0	15.0	295.5577
119.0	16.0	244.7239
119.0	17.0	240.4803
119.0	18.0	269.5908
119.0	19.0	282.009
119.0	20.0	220.8563
119.0	21.0	197.138
119.0	22.0	155.6962
119.0	23.0	26.1452
119.0	24.0	8.6072
119.0	25.0	4.2699
119.0	26.0	-29.3183
119.0	27.0	-64.4793
119.0	28.0	-63.3127
119.0	29.0	-21.0267
119.0	30.0	-42.1379
119.0	31.0	-13.7356
119.0	32.0	-0.8418
119.0	33.0	-13.3471
119.0	34.0	-0.8378
119.0	35.0	-11.0744
119.0	36.0	-4.9736
119.0	37.0	-0.8475
119.0	38.0	-15.0833
119.0	39.0	-14.3241
119.0	40.0	-12.2005
119.0	41.0	-45.7562
119.0	42.0	-69.3847
119.0	43.0	-80.5355
119.0	44.0	-94.6315
119.0	45.0	-101.9418
119.0	46.0	-101.9885
119.0	47.0	-97.0213
119.0	48.0	-67.39
119.0	49.0	-68.0475
119.0	50.0	-62.3683
119.0	51.0	-88.08
119.0	52.0	-90.6488
119.0	53.0	-81.1847
119.0	54.0	-113.9781
119.0	55.0	-91.6923
119.0	56.0	-127.9441
119.0	57.0	-145.7738
119.0	58.0	-89.6088
119.0	59.0	-91.8938
119.0	60.0	-63.2516
119.0	61.0	-54.8613
119.0	62.0	-152.2449
119.0	63.0	-20.2639
119.0	64.0	-29.4669
119.0	65.0	-39.1845
119.0	66.0	-32.3599
119.0	67.0	-32.0011
119.0	68.0	-22.4164
119.0	69.0	-27.9478
119.0	70.0	-21.7949
119.0	71.0	-18.6384
119.0	72.0	-17.9786
119.0	73.0	-18.6674
119.0	74.0	-14.3704
119.0	75.0	-2.9986
119.0	76.0	6.3832
119.0	77.0	17.5482
119.0	78.0	93.0592
119.0	79.0	193.5679
119.0	80.0	231.7372
119.0	81.0	228.8129
119.0	82.0	214.2209
119.0	83.0	265.5472
119.0	84.0	279.0203
119.0	85.0	306.4146
119.0	86.0	291.3109
119.0	87.0	291.7124
119.0	88.0	188.1448
119.0	89.0	305.3383
119.0	90.0	311.9104
120.0	-90.0	-320.9156
120.0	-89.0	-361.4183
120.0	-88.0	-381.6059
120.0	-87.0	-390.4645
120.0	-86.0	-373.8992
120.0	-85.0	-344.379
120.0	-84.0	-338.163
120.0	-83.0	-371.0502
120.0	-82.0	-355.3534
120.0	-81.0	-342.3498
120.0	-80.0	-366.4094
120.0	-79.0	-352.847
120.0	-78.0	-375.9309
120.0	-77.0	-402.9216
120.0	-76.0	-391.6949
120.0	-75.0	-390.1024
120.0	-74.0	-407.2877
120.0	-73.0	-325.4394
120.0	-72.0	-304.4077
120.0	-71.0	-292.6239
120.0	-70.0	-257.0545
120.0	-69.0	-215.1754
120.0	-68.0	-131.1757
120.0	-67.0	-35.9208
120.0	-66.0	26.664
120.0	-65.0	162.5858
120.0	-64.0	203.0282
120.0	-63.0	247.4537
120.0	-62.0	253.2647
120.0	-61.0	288.7618
120.0	-60.0	299.0916
120.0	-59.0	304.8989
120.0	-58.0	311.245
120.0	-57.0	310.3887
120.0	-56.0	304.5352
120.0	-55.0	301.8324
120.0	-54.0	276.5863
120.0	-53.0	304.2532
120.0	-52.0	280.9474
120.0	-51.0	276.2927
120.0	-50.0	234.7146
120.0	-49.0	248.307
120.0	-48.0	258.4883
120.0	-47.0	291.2245
120.0	-46.0	274.077
120.0	-45.0	271.8892
120.0	-44.0	287.9039
120.0	-43.0	296.443
120.0	-42.0	311.7487
120.0	-41.0	291.9195
120.0	-40.0	312.4814
120.0	-39.0	316.6375
120.0	-38.0	329.9702
120.0	-37.0	317.126
120.0	-36.0	279.9306
120.0	-35.0	190.0046
120.0	-34.0	-30.5135
120.0	-33.0	-55.879
120.0	-32.0	-51.2493
120.0	-31.0	-58.2515
120.0	-30.0	-56.6511
120.0	-29.0	-56.8321
120.0	-28.0	-66.7204
120.0	-27.0	-75.5177
120.0	-26.0	-71.0637
120.0	-25.0	-77.6779
120.0	-24.0	-25.1459
120.0	-23.0	-75.4538
120.0	-22.0	-49.2819
120.0	-21.0	-39.3855
120.0	-20.0	4.2875
120.0	-19.0	28.1607
120.0	-18.0	1.6371
120.0	-17.0	48.1496
120.0	-16.0	88.0042
120.0	-15.0	128.4753
120.0	-14.0	206.2922
120.0	-13.0	206.5867
120.0	-12.0	258.7182
120.0	-11.0	115.7831
120.0	-10.0	160.0427
120.0	-9.0	96.7057
120.0	-8.0	143.8746
120.0	-7.0	218.588
120.0	-6.0	92.6871
120.0	-5.0	25.3138
120.0	-4.0	2.1985
120.0	-3.0	0.9953
120.0	-2.0	-39.3051
120.0	-1.0	17.5197
120.0	0.0	39.0798
120.0	1.0	141.5968
120.0	2.0	235.1778
120.0	3.0	313.3831
120.0	4.0	284.2517
120.0	5.0	105.833
120.0	6.0	90.481
120.0	7.0	297.8404
120.0	8.0	294.7522
120.0	9.0	115.6564
120.0	10.0	94.3209
120.0	11.0	44.7056
120.0	12.0	58.1687
120.0	13.0	67.7081
120.0	14.0	111.2146
120.0	15.0	100.5778
120.0	16.0	161.1613
120.0	17.0	85.8432
120.0	18.0	182.2145
120.0	19.0	184.3742
120.0	20.0	252.3624
120.0	21.0	207.1917
120.0	22.0	113.906
120.0	23.0	4.6304
120.0	24.0	19.0122
120.0	25.0	35.9047
120.0	26.0	10.3274
120.0	27.0	-33.0502
120.0	28.0	-53.1032
120.0	29.0	-36.4503
120.0	30.0	-4.475
120.0	31.0	-7.5637
120.0	32.0	0.789
120.0	33.0	-1.1084
120.0	34.0	0.8629
120.0	35.0	2.2817
120.0	36.0	-3.819
120.0	37.0	-0.5284
120.0	38.0	-3.0299
120.0	39.0	-28.2746
120.0	40.0	8.9361
120.0	41.0	-21.2867
120.0	42.0	-72.7598
120.0	43.0	-48.1392
120.0	44.0	-52.9359
120.0	45.0	-87.5753
120.0	46.0	-90.14
120.0	47.0	-105.6413
120.0	48.0	-83.9962
120.0	49.0	-73.5901
120.0	50.0	-76.0643
120.0	51.0	-81.1082
120.0	52.0	-81.3049
120.0	53.0	-60.3868
120.0	54.0	-112.9725
120.0	55.0	-99.6811
120.0	56.0	-125.5006
120.0	57.0	-116.5758
120.0	58.0	-92.1057
120.0	59.0	-76.9623
120.0	60.0	-58.1839
120.0	61.0	-55.0393
120.0	62.0	-133.9394
120.0	63.0	-39.9381
120.0	64.0	-45.9176
120.0	65.0	-37.6865
120.0	66.0	-38.8348
120.0	67.0	-26.0526
120.0	68.0	-16.7613
120.0	69.0	-18.4055
120.0	70.0	-13.9084
120.0	71.0	1.9023
120.0	72.0	-30.788
120.0	73.0	-16.2533
120.0	74.0	-9.1719
120.0	75.0	-2.9491
120.0	76.0	5.1426
120.0	77.0	23.0271
120.0	78.0	114.4159
120.0	79.0	200.4028
120.0	80.0	245.2159
120.0	81.0	234.61
120.0	82.0	233.4125
120.0	83.0	276.8251
120.0	84.0	263.1107
120.0	85.0	295.668
120.0	86.0	290.9754
120.0	87.0	289.5386
120.0	88.0	184.8479
120.0	89.0	300.9557
120.0	90.0	311.9104
121.0	-90.0	-320.9156
121.0	-89.0	-361.3628
121.0	-88.0	-382.4434
121.0	-87.0	-390.0362
121.0	-86.0	-372.4856
121.0	-85.0	-346.2728
121.0	-84.0	-338.7139
121.0	-83.0	-371.7621
121.0	-82.0	-358.2158
121.0	-81.0	-343.4099
121.0	-80.0	-373.482
121.0	-79.0	-357.1989
121.0	-78.0	-374.0537
121.0	-77.0	-404.959
121.0	-76.0	-389.0745
121.0	-75.0	-385.5905
121.0	-74.0	-413.7202
121.0	-73.0	-340.6667
121.0	-72.0	-304.3122
121.0	-71.0	-289.8814
121.0	-70.0	-266.1712
121.0	-69.0	-227.9549
121.0	-68.0	-141.496
121.0	-67.0	-26.7752
121.0	-66.0	60.3564
121.0	-65.0	144.4358
121.0	-64.0	204.6867
121.0	-63.0	246.4511
121.0	-62.0	268.1138
121.0	-61.0	278.656
121.0	-60.0	298.3344
121.0	-59.0	306.6249
121.0	-58.0	316.3076
121.0	-57.0	319.0986
121.0	-56.0	312.0677
121.0	-55.0	299.7236
121.0	-54.0	299.2257
121.0	-53.0	304.2132
121.0	-52.0	298.4832
121.0	-51.0	260.9064
121.0	-50.0	229.1045
121.0	-49.0	240.604
121.0	-48.0	240.0225
121.0	-47.0	288.9432
121.0	-46.0	284.2317
121.0	-45.0	286.3609
121.0	-44.0	292.5948
121.0	-43.0	305.6176
121.0	-42.0	312.0644
121.0	-41.0	312.9594
121.0	-40.0	327.126
121.0	-39.0	320.0585
121.0	-38.0	318.2915
121.0	-37.0	335.1555
121.0	-36.0	279.5942
121.0	-35.0	207.006
121.0	-34.0	0.1624
121.0	-33.0	-43.975
121.0	-32.0	-56.5891
121.0	-31.0	-69.5884
121.0	-30.0	-81.6941
121.0	-29.0	-85.1647
121.0	-28.0	-41.9871
121.0	-27.0	-54.6094
121.0	-26.0	-68.5625
121.0	-25.0	-57.3292
121.0	-24.0	-52.9431
121.0	-23.0	-68.8315
121.0	-22.0	-43.9727
121.0	-21.0	-27.8433
121.0	-20.0	42.4388
121.0	-19.0	29.7523
121.0	-18.0	3.8946
121.0	-17.0	20.7686
121.0	-16.0	49.7688
121.0	-15.0	71.9656
121.0	-14.0	143.3034
121.0	-13.0	166.1079
121.0	-12.0	225.5744
121.0	-11.0	99.2853
121.0	-10.0	72.989
121.0	-9.0	123.1497
121.0	-8.0	160.8822
121.0	-7.0	133.9266
121.0	-6.0	132.2783
121.0	-5.0	121.4205
121.0	-4.0	80.6611
121.0	-3.0	39.7457
121.0	-2.0	-10.5478
121.0	-1.0	-18.2545
121.0	0.0	79.1165
121.0	1.0	65.1583
121.0	2.0	279.3242
121.0	3.0	367.0074
121.0	4.0	359.9898
121.0	5.0	316.1689
121.0	6.0	145.7238
121.0	7.0	192.2589
121.0	8.0	313.9645
121.0	9.0	277.7881
121.0	10.0	134.6476
121.0	11.0	54.8204
121.0	12.0	67.4901
121.0	13.0	1.6799
121.0	14.0	-9.6145
121.0	15.0	23.8337
121.0	16.0	48.067
121.0	17.0	57.4897
121.0	18.0	93.0455
121.0	19.0	155.6172
121.0	20.0	56.914
121.0	21.0	73.8033
121.0	22.0	74.8137
121.0	23.0	15.2314
121.0	24.0	-63.054
121.0	25.0	-6.6595
121.0	26.0	19.5597
121.0	27.0	5.0899
121.0	28.0	0.0538
121.0	29.0	-30.0653
121.0	30.0	-12.5139
121.0	31.0	2.936
121.0	32.0	17.8376
121.0	33.0	12.2846
121.0	34.0	9.4897
121.0	35.0	-16.2617
121.0	36.0	25.5181
121.0	37.0	3.2631
121.0	38.0	6.2551
121.0	39.0	13.3872
121.0	40.0	-12.5459
121.0	41.0	-3.8205
121.0	42.0	-27.1347
121.0	43.0	-34.4092
121.0	44.0	-32.208
121.0	45.0	-44.6573
121.0	46.0	-61.7654
121.0	47.0	-89.4169
121.0	48.0	-97.4759
121.0	49.0	-81.1905
121.0	50.0	-80.944
121.0	51.0	-92.4377
121.0	52.0	-75.1162
121.0	53.0	-72.0823
121.0	54.0	-83.1433
121.0	55.0	-96.9807
121.0	56.0	-99.6986
121.0	57.0	-126.0591
121.0	58.0	-92.1413
121.0	59.0	-77.8421
121.0	60.0	-63.2976
121.0	61.0	-28.1037
121.0	62.0	-66.7847
121.0	63.0	-43.2645
121.0	64.0	-38.634
121.0	65.0	-53.489
121.0	66.0	-29.2319
121.0	67.0	-15.9623
121.0	68.0	-20.7738
121.0	69.0	-15.9559
121.0	70.0	-8.224
121.0	71.0	10.8359
121.0	72.0	-31.7304
121.0	73.0	-9.3293
121.0	74.0	-6.5696
121.0	75.0	2.0086
121.0	76.0	7.1605
121.0	77.0	32.355
121.0	78.0	119.2889
121.0	79.0	221.1251
121.0	80.0	229.8105
121.0	81.0	230.6638
121.0	82.0	271.5612
121.0	83.0	285.3894
121.0	84.0	287.008
121.0	85.0	291.9954
121.0	86.0	291.5613
121.0	87.0	284.3609
121.0	88.0	177.6012
121.0	89.0	295.7447
121.0	90.0	311.9104
122.0	-90.0	-320.9156
122.0	-89.0	-361.1785
122.0	-88.0	-382.6972
122.0	-87.0	-389.9676
122.0	-86.0	-372.443
122.0	-85.0	-346.8368
122.0	-84.0	-337.0267
122.0	-83.0	-372.1105
122.0	-82.0	-362.5105
122.0	-81.0	-344.8032
122.0	-80.0	-382.4021
122.0	-79.0	-362.3655
122.0	-78.0	-375.981
122.0	-77.0	-408.5468
122.0	-76.0	-390.0163
122.0	-75.0	-383.4995
122.0	-74.0	-419.8612
122.0	-73.0	-362.433
122.0	-72.0	-313.4333
122.0	-71.0	-289.0379
122.0	-70.0	-274.5613
122.0	-69.0	-242.5158
122.0	-68.0	-151.4287
122.0	-67.0	-20.5202
122.0	-66.0	42.041
122.0	-65.0	153.7987
122.0	-64.0	195.3852
