lon	lat	mgal
-63.0	80.0	14.8892
-63.0	81.0	13.7114
-63.0	82.0	17.0347
-63.0	83.0	20.7263
-63.0	84.0	21.0807
-63.0	85.0	21.3014
-63.0	86.0	21.1079
-63.0	87.0	19.4534
-63.0	88.0	18.7275
-63.0	89.0	16.1089
-63.0	90.0	15.47
-62.0	-90.0	-29.41
-62.0	-89.0	-28.2932
-62.0	-88.0	-26.6049
-62.0	-87.0	-23.2507
-62.0	-86.0	-21.7159
-62.0	-85.0	-25.5869
-62.0	-84.0	-26.6916
-62.0	-83.0	-25.8446
-62.0	-82.0	-26.1249
-62.0	-81.0	-24.0983
-62.0	-80.0	-22.1484
-62.0	-79.0	-21.1445
-62.0	-78.0	-19.3896
-62.0	-77.0	-15.9219
-62.0	-76.0	-13.0195
-62.0	-75.0	-8.1724
-62.0	-74.0	-2.6032
-62.0	-73.0	0.6285
-62.0	-72.0	3.3129
-62.0	-71.0	5.4714
-62.0	-70.0	7.2314
-62.0	-69.0	7.6654
-62.0	-68.0	8.7204
-62.0	-67.0	12.2196
-62.0	-66.0	16.3709
-62.0	-65.0	19.6169
-62.0	-64.0	19.6746
-62.0	-63.0	17.9341
-62.0	-62.0	14.5352
-62.0	-61.0	18.7513
-62.0	-60.0	19.0163
-62.0	-59.0	19.283
-62.0	-58.0	18.9803
-62.0	-57.0	17.3716
-62.0	-56.0	16.4416
-62.0	-55.0	13.083
-62.0	-54.0	10.6857
-62.0	-53.0	12.4444
-62.0	-52.0	14.4733
-62.0	-51.0	12.4101
-62.0	-50.0	13.2501
-62.0	-49.0	11.734
-62.0	-48.0	11.2384
-62.0	-47.0	11.6952
-62.0	-46.0	11.326
-62.0	-45.0	11.4429
-62.0	-44.0	11.5378
-62.0	-43.0	11.7969
-62.0	-42.0	12.2298
-62.0	-41.0	12.9047
-62.0	-40.0	13.8444
-62.0	-39.0	14.92
-62.0	-38.0	16.106
-62.0	-37.0	17.0086
-62.0	-36.0	18.3054
-62.0	-35.0	18.5505
-62.0	-34.0	18.9233
-62.0	-33.0	19.454
-62.0	-32.0	19.8023
-62.0	-31.0	20.1675
-62.0	-30.0	21.9824
-62.0	-29.0	22.7497
-62.0	-28.0	23.2949
-62.0	-27.0	23.8191
-62.0	-26.0	25.1972
-62.0	-25.0	25.3891
-62.0	-24.0	24.1806
-62.0	-23.0	23.8065
-62.0	-22.0	24.0163
-62.0	-21.0	24.5766
-62.0	-20.0	24.0598
-62.0	-19.0	22.9092
-62.0	-18.0	21.1597
-62.0	-17.0	22.907
-62.0	-16.0	24.3595
-62.0	-15.0	22.2431
-62.0	-14.0	20.2384
-62.0	-13.0	19.207
-62.0	-12.0	18.877
-62.0	-11.0	14.6786
-62.0	-10.0	11.7813
-62.0	-9.0	8.7692
-62.0	-8.0	5.9873
-62.0	-7.0	2.3026
-62.0	-6.0	-0.6575
-62.0	-5.0	-4.4435
-62.0	-4.0	-5.929
-62.0	-3.0	-7.1084
-62.0	-2.0	-7.2233
-62.0	-1.0	-7.7037
-62.0	0.0	-7.245
-62.0	1.0	-7.7294
-62.0	2.0	-9.5364
-62.0	3.0	-12.1245
-62.0	4.0	-13.6544
-62.0	5.0	-12.3691
-62.0	6.0	-15.4232
-62.0	7.0	-22.8765
-62.0	8.0	-25.565
-62.0	9.0	-34.2664
-62.0	10.0	-44.1189
-62.0	11.0	-37.6165
-62.0	12.0	-36.8103
-62.0	13.0	-40.7774
-62.0	14.0	-40.5641
-62.0	15.0	-41.3586
-62.0	16.0	-41.237
-62.0	17.0	-40.6963
-62.0	18.0	-48.516
-62.0	19.0	-61.4531
-62.0	20.0	-52.6183
-62.0	21.0	-49.9429
-62.0	22.0	-50.4774
-62.0	23.0	-51.6129
-62.0	24.0	-51.792
-62.0	25.0	-51.3346
-62.0	26.0	-50.1983
-62.0	27.0	-48.7744
-62.0	28.0	-46.0808
-62.0	29.0	-43.6813
-62.0	30.0	-41.1441
-62.0	31.0	-38.8666
-62.0	32.0	-36.8393
-62.0	33.0	-36.0893
-62.0	34.0	-35.1028
-62.0	35.0	-33.9166
-62.0	36.0	-33.219
-62.0	37.0	-31.8338
-62.0	38.0	-29.979
-62.0	39.0	-29.9664
-62.0	40.0	-29.1695
-62.0	41.0	-27.3993
-62.0	42.0	-25.6083
-62.0	43.0	-19.9715
-62.0	44.0	-18.7362
-62.0	45.0	-17.643
-62.0	46.0	-16.4333
-62.0	47.0	-16.7471
-62.0	48.0	-16.1124
-62.0	49.0	-17.3754
-62.0	50.0	-17.3691
-62.0	51.0	-14.5519
-62.0	52.0	-12.2565
-62.0	53.0	-13.05
-62.0	54.0	-14.012
-62.0	55.0	-11.6207
-62.0	56.0	-9.6188
-62.0	57.0	-8.3075
-62.0	58.0	-6.6055
-62.0	59.0	-0.6946
-62.0	60.0	1.9795
-62.0	61.0	3.4153
-62.0	62.0	6.7602
-62.0	63.0	7.8155
-62.0	64.0	7.539
-62.0	65.0	6.4649
-62.0	66.0	9.648
-62.0	67.0	12.4847
-62.0	68.0	15.3906
-62.0	69.0	17.1984
-62.0	70.0	19.5253
-62.0	71.0	20.1923
-62.0	72.0	21.2747
-62.0	73.0	25.0452
-62.0	74.0	20.08
-62.0	75.0	17.584
-62.0	76.0	19.8482
-62.0	77.0	23.8836
-62.0	78.0	25.3732
-62.0	79.0	21.6648
-62.0	80.0	16.3296
-62.0	81.0	14.1363
-62.0	82.0	16.1873
-62.0	83.0	20.6477
-62.0	84.0	21.253
-62.0	85.0	21.368
-62.0	86.0	21.3287
-62.0	87.0	19.6542
-62.0	88.0	18.76
-62.0	89.0	16.077
-62.0	90.0	15.47
-61.0	-90.0	-29.41
-61.0	-89.0	-28.2947
-61.0	-88.0	-26.6167
-61.0	-87.0	-23.3679
-61.0	-86.0	-21.789
-61.0	-85.0	-25.5119
-61.0	-84.0	-26.6791
-61.0	-83.0	-25.6565
-61.0	-82.0	-26.1372
-61.0	-81.0	-24.1974
-61.0	-80.0	-22.0279
-61.0	-79.0	-21.1711
-61.0	-78.0	-19.4997
-61.0	-77.0	-16.0878
-61.0	-76.0	-13.3701
-61.0	-75.0	-9.0088
-61.0	-74.0	-4.1926
-61.0	-73.0	-0.864
-61.0	-72.0	2.0034
-61.0	-71.0	4.1526
-61.0	-70.0	5.6146
-61.0	-69.0	6.9639
-61.0	-68.0	9.3063
-61.0	-67.0	12.0829
-61.0	-66.0	15.2256
-61.0	-65.0	19.4584
-61.0	-64.0	21.2096
-61.0	-63.0	20.1519
-61.0	-62.0	15.5724
-61.0	-61.0	18.2994
-61.0	-60.0	19.6449
-61.0	-59.0	20.0118
-61.0	-58.0	19.8496
-61.0	-57.0	18.3107
-61.0	-56.0	17.3254
-61.0	-55.0	14.5125
-61.0	-54.0	11.6762
-61.0	-53.0	11.5739
-61.0	-52.0	14.5015
-61.0	-51.0	12.745
-61.0	-50.0	13.3612
-61.0	-49.0	11.726
-61.0	-48.0	11.1876
-61.0	-47.0	11.6484
-61.0	-46.0	10.5082
-61.0	-45.0	11.1302
-61.0	-44.0	11.3534
-61.0	-43.0	11.856
-61.0	-42.0	12.4691
-61.0	-41.0	13.7296
-61.0	-40.0	13.8316
-61.0	-39.0	13.83
-61.0	-38.0	14.8284
-61.0	-37.0	17.2278
-61.0	-36.0	17.5968
-61.0	-35.0	17.6045
-61.0	-34.0	17.7652
-61.0	-33.0	18.0067
-61.0	-32.0	18.4122
-61.0	-31.0	18.5977
-61.0	-30.0	19.8614
-61.0	-29.0	20.5914
-61.0	-28.0	21.5654
-61.0	-27.0	22.373
-61.0	-26.0	23.1771
-61.0	-25.0	23.4255
-61.0	-24.0	22.9796
-61.0	-23.0	22.1801
-61.0	-22.0	22.014
-61.0	-21.0	22.7593
-61.0	-20.0	23.0189
-61.0	-19.0	21.09
-61.0	-18.0	21.1014
-61.0	-17.0	21.7402
-61.0	-16.0	22.1382
-61.0	-15.0	19.5571
-61.0	-14.0	17.669
-61.0	-13.0	16.6057
-61.0	-12.0	15.2881
-61.0	-11.0	10.2461
-61.0	-10.0	8.7529
-61.0	-9.0	6.1179
-61.0	-8.0	3.0321
-61.0	-7.0	-0.4652
-61.0	-6.0	-3.8944
-61.0	-5.0	-6.0463
-61.0	-4.0	-7.1325
-61.0	-3.0	-9.2083
-61.0	-2.0	-9.6299
-61.0	-1.0	-9.8316
-61.0	0.0	-9.619
-61.0	1.0	-10.5551
-61.0	2.0	-11.7609
-61.0	3.0	-14.2523
-61.0	4.0	-16.6173
-61.0	5.0	-13.8991
-61.0	6.0	-17.9019
-61.0	7.0	-24.6627
-61.0	8.0	-28.4585
-61.0	9.0	-33.8192
-61.0	10.0	-41.9091
-61.0	11.0	-41.4266
-61.0	12.0	-42.1776
-61.0	13.0	-37.8977
-61.0	14.0	-37.0688
-61.0	15.0	-39.8715
-61.0	16.0	-43.387
-61.0	17.0	-54.142
-61.0	18.0	-60.9134
-61.0	19.0	-57.0583
-61.0	20.0	-49.4763
-61.0	21.0	-49.2342
-61.0	22.0	-49.77
-61.0	23.0	-50.7397
-61.0	24.0	-50.8821
-61.0	25.0	-50.0991
-61.0	26.0	-49.1972
-61.0	27.0	-48.2622
-61.0	28.0	-45.8333
-61.0	29.0	-43.3388
-61.0	30.0	-40.6014
-61.0	31.0	-38.3362
-61.0	32.0	-36.0261
-61.0	33.0	-34.8188
-61.0	34.0	-33.8588
-61.0	35.0	-32.0149
-61.0	36.0	-30.9841
-61.0	37.0	-30.3961
-61.0	38.0	-27.6539
-61.0	39.0	-25.3274
-61.0	40.0	-27.7889
-61.0	41.0	-26.3684
-61.0	42.0	-24.8407
-61.0	43.0	-20.1821
-61.0	44.0	-17.2003
-61.0	45.0	-16.6319
-61.0	46.0	-14.3082
-61.0	47.0	-14.8473
-61.0	48.0	-15.0222
-61.0	49.0	-15.3223
-61.0	50.0	-15.1754
-61.0	51.0	-12.5611
-61.0	52.0	-9.5596
-61.0	53.0	-9.6555
-61.0	54.0	-12.4275
-61.0	55.0	-10.1447
-61.0	56.0	-8.6275
-61.0	57.0	-6.4084
-61.0	58.0	-2.4332
-61.0	59.0	3.0299
-61.0	60.0	4.4466
-61.0	61.0	6.8729
-61.0	62.0	10.2295
-61.0	63.0	10.6828
-61.0	64.0	11.9983
-61.0	65.0	12.5734
-61.0	66.0	13.3242
-61.0	67.0	15.9353
-61.0	68.0	17.6567
-61.0	69.0	19.004
-61.0	70.0	21.8592
-61.0	71.0	22.664
-61.0	72.0	23.2909
-61.0	73.0	22.9944
-61.0	74.0	19.4447
-61.0	75.0	18.3451
-61.0	76.0	20.4071
-61.0	77.0	24.3376
-61.0	78.0	26.2334
-61.0	79.0	22.5328
-61.0	80.0	18.0677
-61.0	81.0	15.2376
-61.0	82.0	15.6488
-61.0	83.0	20.5239
-61.0	84.0	21.5393
-61.0	85.0	21.4333
-61.0	86.0	21.5279
-61.0	87.0	19.8169
-61.0	88.0	18.7809
-61.0	89.0	16.0558
-61.0	90.0	15.47
-60.0	-90.0	-29.41
-60.0	-89.0	-28.2977
-60.0	-88.0	-26.6325
-60.0	-87.0	-23.5188
-60.0	-86.0	-21.9078
-60.0	-85.0	-25.4462
-60.0	-84.0	-26.5872
-60.0	-83.0	-25.3678
-60.0	-82.0	-26.0754
-60.0	-81.0	-24.3104
-60.0	-80.0	-21.9611
-60.0	-79.0	-21.204
-60.0	-78.0	-19.5765
-60.0	-77.0	-16.2557
-60.0	-76.0	-13.5732
-60.0	-75.0	-9.7543
-60.0	-74.0	-5.8356
-60.0	-73.0	-2.2513
-60.0	-72.0	0.7382
-60.0	-71.0	3.2017
-60.0	-70.0	4.7788
-60.0	-69.0	6.9149
-60.0	-68.0	10.0527
-60.0	-67.0	12.6957
-60.0	-66.0	14.6565
-60.0	-65.0	18.8739
-60.0	-64.0	22.3747
-60.0	-63.0	20.7106
-60.0	-62.0	18.1959
-60.0	-61.0	17.1853
-60.0	-60.0	20.4638
-60.0	-59.0	19.931
-60.0	-58.0	19.6787
-60.0	-57.0	19.2993
-60.0	-56.0	18.0894
-60.0	-55.0	17.4244
-60.0	-54.0	11.0507
-60.0	-53.0	11.2251
-60.0	-52.0	12.8089
-60.0	-51.0	13.744
-60.0	-50.0	13.1241
-60.0	-49.0	11.4169
-60.0	-48.0	10.4098
-60.0	-47.0	9.9434
-60.0	-46.0	9.3196
-60.0	-45.0	9.4296
-60.0	-44.0	10.3908
-60.0	-43.0	11.5946
-60.0	-42.0	12.3277
-60.0	-41.0	12.8687
-60.0	-40.0	13.7608
-60.0	-39.0	12.4866
-60.0	-38.0	14.8565
-60.0	-37.0	17.3955
-60.0	-36.0	17.4064
-60.0	-35.0	17.5551
-60.0	-34.0	17.5636
-60.0	-33.0	17.2629
-60.0	-32.0	17.4098
-60.0	-31.0	17.5153
-60.0	-30.0	18.4389
-60.0	-29.0	19.2704
-60.0	-28.0	20.2365
-60.0	-27.0	20.83
-60.0	-26.0	21.5253
-60.0	-25.0	21.3361
-60.0	-24.0	20.6005
-60.0	-23.0	19.7397
-60.0	-22.0	19.803
-60.0	-21.0	20.6827
-60.0	-20.0	19.9736
-60.0	-19.0	18.8795
-60.0	-18.0	20.0442
-60.0	-17.0	19.9558
-60.0	-16.0	18.0828
-60.0	-15.0	16.559
-60.0	-14.0	14.6677
-60.0	-13.0	13.8612
-60.0	-12.0	11.8849
-60.0	-11.0	5.2222
-60.0	-10.0	4.2383
-60.0	-9.0	3.4458
-60.0	-8.0	0.1546
-60.0	-7.0	-3.1594
-60.0	-6.0	-6.1655
-60.0	-5.0	-7.8145
-60.0	-4.0	-7.777
-60.0	-3.0	-11.6194
-60.0	-2.0	-11.8797
-60.0	-1.0	-12.4115
-60.0	0.0	-13.0404
-60.0	1.0	-14.4286
-60.0	2.0	-15.4936
-60.0	3.0	-17.4042
-60.0	4.0	-19.0531
-60.0	5.0	-18.6583
-60.0	6.0	-23.3001
-60.0	7.0	-27.1537
-60.0	8.0	-29.9067
-60.0	9.0	-32.603
-60.0	10.0	-41.1129
-60.0	11.0	-46.067
-60.0	12.0	-48.6984
-60.0	13.0	-47.8523
-60.0	14.0	-45.3184
-60.0	15.0	-55.386
-60.0	16.0	-60.733
-60.0	17.0	-61.1841
-60.0	18.0	-57.3972
-60.0	19.0	-51.2884
-60.0	20.0	-46.6019
-60.0	21.0	-48.3097
-60.0	22.0	-49.282
-60.0	23.0	-49.8318
-60.0	24.0	-49.7002
-60.0	25.0	-48.9397
-60.0	26.0	-48.0361
-60.0	27.0	-47.1384
-60.0	28.0	-44.9812
-60.0	29.0	-42.3584
-60.0	30.0	-40.2384
-60.0	31.0	-38.1
-60.0	32.0	-35.9819
-60.0	33.0	-34.2083
-60.0	34.0	-32.7858
-60.0	35.0	-30.9
-60.0	36.0	-29.974
-60.0	37.0	-28.4993
-60.0	38.0	-27.7354
-60.0	39.0	-26.4229
-60.0	40.0	-26.1474
-60.0	41.0	-24.8963
-60.0	42.0	-23.6495
-60.0	43.0	-19.2862
-60.0	44.0	-14.057
-60.0	45.0	-14.8003
-60.0	46.0	-12.3501
-60.0	47.0	-12.8973
-60.0	48.0	-13.5612
-60.0	49.0	-13.1927
-60.0	50.0	-12.1541
-60.0	51.0	-9.683
-60.0	52.0	-7.2954
-60.0	53.0	-6.3168
-60.0	54.0	-8.3136
-60.0	55.0	-7.7671
-60.0	56.0	-5.6945
-60.0	57.0	-0.5468
-60.0	58.0	3.894
-60.0	59.0	5.4715
-60.0	60.0	5.5003
-60.0	61.0	8.3729
-60.0	62.0	9.7428
-60.0	63.0	11.3351
-60.0	64.0	14.4708
-60.0	65.0	16.8921
-60.0	66.0	18.081
-60.0	67.0	18.8383
-60.0	68.0	20.1126
-60.0	69.0	21.4954
-60.0	70.0	23.8461
-60.0	71.0	24.9301
-60.0	72.0	25.2453
-60.0	73.0	20.9875
-60.0	74.0	18.7933
-60.0	75.0	19.9987
-60.0	76.0	21.2356
-60.0	77.0	24.7387
-60.0	78.0	27.0683
-60.0	79.0	23.6379
-60.0	80.0	19.6238
-60.0	81.0	17.2169
-60.0	82.0	16.0391
-60.0	83.0	20.5479
-60.0	84.0	21.8597
-60.0	85.0	21.5004
-60.0	86.0	21.7285
-60.0	87.0	19.939
-60.0	88.0	18.7812
-60.0	89.0	16.0422
-60.0	90.0	15.47
-59.0	-90.0	-29.41
-59.0	-89.0	-28.3027
-59.0	-88.0	-26.6502
-59.0	-87.0	-23.6941
-59.0	-86.0	-22.07
-59.0	-85.0	-25.3681
-59.0	-84.0	-26.4162
-59.0	-83.0	-24.9759
-59.0	-82.0	-25.92
-59.0	-81.0	-24.4005
-59.0	-80.0	-21.9099
-59.0	-79.0	-21.2117
-59.0	-78.0	-19.5865
-59.0	-77.0	-16.3845
-59.0	-76.0	-13.6145
-59.0	-75.0	-10.2527
-59.0	-74.0	-7.0462
-59.0	-73.0	-3.0963
-59.0	-72.0	-0.1044
-59.0	-71.0	2.8317
-59.0	-70.0	4.622
-59.0	-69.0	7.1169
-59.0	-68.0	9.7773
-59.0	-67.0	12.5822
-59.0	-66.0	14.6953
-59.0	-65.0	18.4657
-59.0	-64.0	22.4081
-59.0	-63.0	22.0784
-59.0	-62.0	21.4238
-59.0	-61.0	15.8739
-59.0	-60.0	21.6501
-59.0	-59.0	20.1862
-59.0	-58.0	20.9848
-59.0	-57.0	20.0096
-59.0	-56.0	18.5136
-59.0	-55.0	16.908
-59.0	-54.0	10.7301
-59.0	-53.0	11.2007
-59.0	-52.0	12.5456
-59.0	-51.0	13.6787
-59.0	-50.0	12.7784
-59.0	-49.0	11.0407
-59.0	-48.0	9.177
-59.0	-47.0	7.556
-59.0	-46.0	6.3626
-59.0	-45.0	5.9777
-59.0	-44.0	7.2236
-59.0	-43.0	9.6096
-59.0	-42.0	12.0349
-59.0	-41.0	12.6469
-59.0	-40.0	13.4741
-59.0	-39.0	12.7763
-59.0	-38.0	15.1762
-59.0	-37.0	16.6756
-59.0	-36.0	17.3994
-59.0	-35.0	17.0049
-59.0	-34.0	17.1751
-59.0	-33.0	17.774
-59.0	-32.0	17.2243
-59.0	-31.0	17.1002
-59.0	-30.0	17.718
-59.0	-29.0	18.0165
-59.0	-28.0	18.8056
-59.0	-27.0	19.4746
-59.0	-26.0	19.4846
-59.0	-25.0	19.421
-59.0	-24.0	18.6306
-59.0	-23.0	17.7334
-59.0	-22.0	18.2658
-59.0	-21.0	18.3266
-59.0	-20.0	16.9631
-59.0	-19.0	17.5088
-59.0	-18.0	17.3153
-59.0	-17.0	16.4595
-59.0	-16.0	15.0094
-59.0	-15.0	13.76
-59.0	-14.0	13.5823
-59.0	-13.0	9.9534
-59.0	-12.0	8.6393
-59.0	-11.0	1.9467
-59.0	-10.0	0.2008
-59.0	-9.0	-0.526
-59.0	-8.0	-2.5704
-59.0	-7.0	-4.1605
-59.0	-6.0	-7.5228
-59.0	-5.0	-10.3506
-59.0	-4.0	-9.6351
-59.0	-3.0	-14.3866
-59.0	-2.0	-15.1593
-59.0	-1.0	-16.0099
-59.0	0.0	-16.7875
-59.0	1.0	-16.4554
-59.0	2.0	-18.6169
-59.0	3.0	-20.6157
-59.0	4.0	-21.9831
-59.0	5.0	-23.0927
-59.0	6.0	-26.9713
-59.0	7.0	-28.7273
-59.0	8.0	-30.6823
-59.0	9.0	-35.2325
-59.0	10.0	-40.1381
-59.0	11.0	-44.3688
-59.0	12.0	-48.2358
-59.0	13.0	-47.6602
-59.0	14.0	-52.8059
-59.0	15.0	-55.3435
-59.0	16.0	-54.4985
-59.0	17.0	-52.6913
-59.0	18.0	-50.5415
-59.0	19.0	-47.4979
-59.0	20.0	-45.4749
-59.0	21.0	-46.5667
-59.0	22.0	-48.1923
-59.0	23.0	-48.4401
-59.0	24.0	-48.2627
-59.0	25.0	-47.6465
-59.0	26.0	-46.5885
-59.0	27.0	-45.5237
-59.0	28.0	-43.6642
-59.0	29.0	-41.1105
-59.0	30.0	-38.9045
-59.0	31.0	-37.0711
-59.0	32.0	-35.0014
-59.0	33.0	-33.3789
-59.0	34.0	-31.5868
-59.0	35.0	-29.9818
-59.0	36.0	-28.5092
-59.0	37.0	-26.8871
-59.0	38.0	-26.6303
-59.0	39.0	-25.2479
-59.0	40.0	-24.1793
-59.0	41.0	-23.0671
-59.0	42.0	-22.0285
-59.0	43.0	-18.8007
-59.0	44.0	-12.2806
-59.0	45.0	-12.2942
-59.0	46.0	-10.741
-59.0	47.0	-10.3224
-59.0	48.0	-7.7198
-59.0	49.0	-9.012
-59.0	50.0	-9.1601
-59.0	51.0	-6.9617
-59.0	52.0	-4.3949
-59.0	53.0	-2.7592
-59.0	54.0	-4.8679
-59.0	55.0	-4.0892
-59.0	56.0	0.0106
-59.0	57.0	4.5814
-59.0	58.0	5.0904
-59.0	59.0	5.8264
-59.0	60.0	7.6299
-59.0	61.0	9.8695
-59.0	62.0	10.8801
-59.0	63.0	12.7767
-59.0	64.0	15.4337
-59.0	65.0	18.1454
-59.0	66.0	20.0906
-59.0	67.0	20.0718
-59.0	68.0	23.5671
-59.0	69.0	24.9837
-59.0	70.0	25.1677
-59.0	71.0	25.9856
-59.0	72.0	26.2219
-59.0	73.0	20.5359
-59.0	74.0	20.4392
-59.0	75.0	20.8549
-59.0	76.0	22.2868
-59.0	77.0	25.2299
-59.0	78.0	27.7813
-59.0	79.0	24.6102
-59.0	80.0	20.7276
-59.0	81.0	18.5475
-59.0	82.0	16.5784
-59.0	83.0	20.6151
-59.0	84.0	22.2748
-59.0	85.0	21.5768
-59.0	86.0	21.9353
-59.0	87.0	20.0212
-59.0	88.0	18.7537
-59.0	89.0	16.0329
-59.0	90.0	15.47
-58.0	-90.0	-29.41
-58.0	-89.0	-28.3098
-58.0	-88.0	-26.6699
-58.0	-87.0	-23.8876
-58.0	-86.0	-22.2856
-58.0	-85.0	-25.2802
-58.0	-84.0	-26.1612
-58.0	-83.0	-24.4872
-58.0	-82.0	-25.6568
-58.0	-81.0	-24.4293
-58.0	-80.0	-21.8334
-58.0	-79.0	-21.1643
-58.0	-78.0	-19.508
-58.0	-77.0	-16.4414
-58.0	-76.0	-13.5042
-58.0	-75.0	-10.2825
-58.0	-74.0	-7.0361
-58.0	-73.0	-3.1381
-58.0	-72.0	-0.2211
-58.0	-71.0	2.9541
-58.0	-70.0	5.045
-58.0	-69.0	7.7013
-58.0	-68.0	9.8303
-58.0	-67.0	12.221
-58.0	-66.0	14.7878
-58.0	-65.0	18.1626
-58.0	-64.0	22.1322
-58.0	-63.0	22.971
-58.0	-62.0	22.3334
-58.0	-61.0	15.4396
-58.0	-60.0	21.1417
-58.0	-59.0	20.7434
-58.0	-58.0	20.8711
-58.0	-57.0	20.0268
-58.0	-56.0	19.1678
-58.0	-55.0	18.2958
-58.0	-54.0	10.6666
-58.0	-53.0	11.0334
-58.0	-52.0	12.6766
-58.0	-51.0	13.4464
-58.0	-50.0	11.9733
-58.0	-49.0	10.2999
-58.0	-48.0	7.4005
-58.0	-47.0	6.5332
-58.0	-46.0	5.4827
-58.0	-45.0	3.9333
-58.0	-44.0	6.6697
-58.0	-43.0	6.5502
-58.0	-42.0	10.4326
-58.0	-41.0	11.75
-58.0	-40.0	13.5179
-58.0	-39.0	13.4476
-58.0	-38.0	15.3679
-58.0	-37.0	15.6424
-58.0	-36.0	17.3967
-58.0	-35.0	16.2922
-58.0	-34.0	16.8914
-58.0	-33.0	17.7457
-58.0	-32.0	17.2096
-58.0	-31.0	16.6198
-58.0	-30.0	15.9354
-58.0	-29.0	16.5631
-58.0	-28.0	17.4812
-58.0	-27.0	17.9559
-58.0	-26.0	17.6871
-58.0	-25.0	17.6432
-58.0	-24.0	16.4729
-58.0	-23.0	16.2476
-58.0	-22.0	16.4023
-58.0	-21.0	16.2452
-58.0	-20.0	15.6198
-58.0	-19.0	15.1476
-58.0	-18.0	14.1614
-58.0	-17.0	12.1948
-58.0	-16.0	10.4102
-58.0	-15.0	8.8824
-58.0	-14.0	9.131
-58.0	-13.0	7.6418
-58.0	-12.0	6.3237
-58.0	-11.0	-1.6071
-58.0	-10.0	-2.258
-58.0	-9.0	-3.5583
-58.0	-8.0	-4.8888
-58.0	-7.0	-6.8121
-58.0	-6.0	-9.3123
-58.0	-5.0	-12.9739
-58.0	-4.0	-11.6684
-58.0	-3.0	-14.8032
-58.0	-2.0	-16.356
-58.0	-1.0	-18.8173
-58.0	0.0	-19.6002
-58.0	1.0	-18.9161
-58.0	2.0	-20.861
-58.0	3.0	-22.2539
-58.0	4.0	-23.3979
-58.0	5.0	-24.3975
-58.0	6.0	-26.9208
-58.0	7.0	-28.6951
-58.0	8.0	-32.151
-58.0	9.0	-39.5171
-58.0	10.0	-41.3007
-58.0	11.0	-44.0856
-58.0	12.0	-44.8761
-58.0	13.0	-45.5038
-58.0	14.0	-48.124
-58.0	15.0	-48.3149
-58.0	16.0	-48.8593
-58.0	17.0	-48.9158
-58.0	18.0	-48.0648
-58.0	19.0	-47.4161
-58.0	20.0	-44.8577
-58.0	21.0	-44.4806
-58.0	22.0	-46.2929
-58.0	23.0	-47.0037
-58.0	24.0	-46.8528
-58.0	25.0	-46.4982
-58.0	26.0	-45.275
-58.0	27.0	-43.9752
-58.0	28.0	-42.0863
-58.0	29.0	-39.6466
-58.0	30.0	-37.4356
-58.0	31.0	-35.6722
-58.0	32.0	-34.3225
-58.0	33.0	-31.2271
-58.0	34.0	-29.3526
-58.0	35.0	-28.9206
-58.0	36.0	-27.0418
-58.0	37.0	-25.1646
-58.0	38.0	-24.2133
-58.0	39.0	-23.5196
-58.0	40.0	-22.2865
-58.0	41.0	-20.9681
-58.0	42.0	-19.2146
-58.0	43.0	-17.2501
-58.0	44.0	-11.6919
-58.0	45.0	-9.5506
-58.0	46.0	-8.8074
-58.0	47.0	-6.8582
-58.0	48.0	-3.155
-58.0	49.0	-2.774
-58.0	50.0	-4.7332
-58.0	51.0	-4.3536
-58.0	52.0	-0.7668
-58.0	53.0	0.0139
-58.0	54.0	-0.9377
-58.0	55.0	-0.6914
-58.0	56.0	5.4268
-58.0	57.0	6.18
-58.0	58.0	6.7711
-58.0	59.0	7.8154
-58.0	60.0	9.8079
-58.0	61.0	11.784
-58.0	62.0	13.1563
-58.0	63.0	14.8495
-58.0	64.0	16.8443
-58.0	65.0	19.339
-58.0	66.0	21.1207
-58.0	67.0	22.2529
-58.0	68.0	25.4167
-58.0	69.0	26.1382
-58.0	70.0	26.3525
-58.0	71.0	26.8694
-58.0	72.0	26.3474
-58.0	73.0	21.5385
-58.0	74.0	22.0617
-58.0	75.0	21.6248
-58.0	76.0	23.3697
-58.0	77.0	25.7767
-58.0	78.0	28.3938
-58.0	79.0	25.3362
-58.0	80.0	21.6594
-58.0	81.0	19.4308
-58.0	82.0	17.1912
-58.0	83.0	20.753
-58.0	84.0	22.7556
-58.0	85.0	21.6439
-58.0	86.0	22.0944
-58.0	87.0	20.0745
-58.0	88.0	18.6993
-58.0	89.0	16.0251
-58.0	90.0	15.47
-57.0	-90.0	-29.41
-57.0	-89.0	-28.3191
-57.0	-88.0	-26.6934
-57.0	-87.0	-24.1053
-57.0	-86.0	-22.5374
-57.0	-85.0	-25.1751
-57.0	-84.0	-25.864
-57.0	-83.0	-23.9388
-57.0	-82.0	-25.2865
-57.0	-81.0	-24.374
-57.0	-80.0	-21.694
-57.0	-79.0	-21.0319
-57.0	-78.0	-19.3354
-57.0	-77.0	-16.4114
-57.0	-76.0	-13.2696
-57.0	-75.0	-9.8731
-57.0	-74.0	-6.3236
-57.0	-73.0	-2.6739
-57.0	-72.0	0.6683
-57.0	-71.0	3.5206
-57.0	-70.0	5.4637
-57.0	-69.0	8.2401
-57.0	-68.0	10.7877
-57.0	-67.0	12.6647
-57.0	-66.0	15.3784
-57.0	-65.0	17.911
-57.0	-64.0	21.3364
-57.0	-63.0	23.5646
-57.0	-62.0	22.7424
-57.0	-61.0	16.5301
-57.0	-60.0	20.7241
-57.0	-59.0	21.2458
-57.0	-58.0	20.856
-57.0	-57.0	19.9464
-57.0	-56.0	18.4847
-57.0	-55.0	18.746
-57.0	-54.0	8.8437
-57.0	-53.0	10.0165
-57.0	-52.0	12.3816
-57.0	-51.0	12.6884
-57.0	-50.0	11.0396
-57.0	-49.0	9.2941
-57.0	-48.0	5.9522
-57.0	-47.0	4.8115
-57.0	-46.0	3.2974
-57.0	-45.0	2.5525
-57.0	-44.0	3.2059
-57.0	-43.0	4.4584
-57.0	-42.0	6.709
-57.0	-41.0	10.477
-57.0	-40.0	12.4727
-57.0	-39.0	12.674
-57.0	-38.0	13.4781
-57.0	-37.0	14.6374
-57.0	-36.0	15.6164
-57.0	-35.0	15.65
-57.0	-34.0	16.7899
-57.0	-33.0	17.2746
-57.0	-32.0	16.6229
-57.0	-31.0	15.412
-57.0	-30.0	14.6276
-57.0	-29.0	14.5113
-57.0	-28.0	14.95
-57.0	-27.0	15.6551
-57.0	-26.0	15.245
-57.0	-25.0	13.7051
-57.0	-24.0	13.0156
-57.0	-23.0	13.4043
-57.0	-22.0	14.3695
-57.0	-21.0	13.8918
-57.0	-20.0	13.9104
-57.0	-19.0	12.6337
-57.0	-18.0	11.0656
-57.0	-17.0	9.3631
-57.0	-16.0	5.8732
-57.0	-15.0	3.4246
-57.0	-14.0	4.2549
-57.0	-13.0	2.8158
-57.0	-12.0	1.4287
-57.0	-11.0	-5.8652
-57.0	-10.0	-4.5002
-57.0	-9.0	-6.2434
-57.0	-8.0	-7.3902
-57.0	-7.0	-10.1538
-57.0	-6.0	-12.9834
-57.0	-5.0	-15.916
-57.0	-4.0	-16.3412
-57.0	-3.0	-15.0431
-57.0	-2.0	-17.3963
-57.0	-1.0	-22.1823
-57.0	0.0	-22.3719
-57.0	1.0	-21.3922
-57.0	2.0	-22.4381
-57.0	3.0	-24.4674
-57.0	4.0	-26.5265
-57.0	5.0	-26.8155
-57.0	6.0	-27.5401
-57.0	7.0	-30.2898
-57.0	8.0	-34.64
-57.0	9.0	-39.695
-57.0	10.0	-43.8378
-57.0	11.0	-46.8103
-57.0	12.0	-47.4283
-57.0	13.0	-46.7845
-57.0	14.0	-47.5709
-57.0	15.0	-48.7772
-57.0	16.0	-45.5622
-57.0	17.0	-48.3074
-57.0	18.0	-46.3979
-57.0	19.0	-46.7997
-57.0	20.0	-45.4291
-57.0	21.0	-43.7151
-57.0	22.0	-44.7211
-57.0	23.0	-45.2872
-57.0	24.0	-45.1755
-57.0	25.0	-44.4313
-57.0	26.0	-43.3093
-57.0	27.0	-42.3097
-57.0	28.0	-40.2919
-57.0	29.0	-37.8406
-57.0	30.0	-35.9164
-57.0	31.0	-34.2764
-57.0	32.0	-32.9663
-57.0	33.0	-30.1991
-57.0	34.0	-28.7895
-57.0	35.0	-26.89
-57.0	36.0	-25.4573
-57.0	37.0	-23.4422
-57.0	38.0	-22.2365
-57.0	39.0	-21.6043
-57.0	40.0	-20.4047
-57.0	41.0	-18.6214
-57.0	42.0	-16.0912
-57.0	43.0	-13.2265
-57.0	44.0	-10.3307
-57.0	45.0	-6.43
-57.0	46.0	-5.29
-57.0	47.0	-3.3785
-57.0	48.0	-0.8077
-57.0	49.0	2.4407
-57.0	50.0	1.5182
-57.0	51.0	-1.3204
-57.0	52.0	2.195
-57.0	53.0	4.2258
-57.0	54.0	2.3078
-57.0	55.0	3.3846
-57.0	56.0	6.4477
-57.0	57.0	8.4781
-57.0	58.0	9.1631
-57.0	59.0	10.6045
-57.0	60.0	12.3614
-57.0	61.0	13.9605
-57.0	62.0	15.6591
-57.0	63.0	16.724
-57.0	64.0	19.4993
-57.0	65.0	21.0633
-57.0	66.0	22.3358
-57.0	67.0	23.407
-57.0	68.0	25.8505
-57.0	69.0	26.9414
-57.0	70.0	27.5024
-57.0	71.0	27.7613
-57.0	72.0	25.8513
-57.0	73.0	22.6069
-57.0	74.0	22.7904
-57.0	75.0	22.5197
-57.0	76.0	24.4954
-57.0	77.0	26.3546
-57.0	78.0	28.8865
-57.0	79.0	26.0604
-57.0	80.0	22.5981
-57.0	81.0	20.3676
-57.0	82.0	17.6191
-57.0	83.0	20.8628
-57.0	84.0	23.2794
-57.0	85.0	21.6682
-57.0	86.0	22.1561
-57.0	87.0	20.1081
-57.0	88.0	18.629
-57.0	89.0	16.017
-57.0	90.0	15.47
-56.0	-90.0	-29.41
-56.0	-89.0	-28.3303
-56.0	-88.0	-26.7212
-56.0	-87.0	-24.3444
-56.0	-86.0	-22.8253
-56.0	-85.0	-25.0548
-56.0	-84.0	-25.56
-56.0	-83.0	-23.3485
-56.0	-82.0	-24.8194
-56.0	-81.0	-24.2168
-56.0	-80.0	-21.4602
-56.0	-79.0	-20.787
-56.0	-78.0	-19.0733
-56.0	-77.0	-16.3006
-56.0	-76.0	-12.9262
-56.0	-75.0	-9.5022
-56.0	-74.0	-5.5071
-56.0	-73.0	-2.1573
-56.0	-72.0	1.6013
-56.0	-71.0	2.9383
-56.0	-70.0	3.3931
-56.0	-69.0	6.9519
-56.0	-68.0	10.5265
-56.0	-67.0	13.3165
-56.0	-66.0	16.5111
-56.0	-65.0	18.4726
-56.0	-64.0	20.6398
-56.0	-63.0	23.6856
-56.0	-62.0	22.4393
-56.0	-61.0	20.3869
-56.0	-60.0	20.7015
-56.0	-59.0	21.4207
-56.0	-58.0	20.8268
-56.0	-57.0	20.5455
-56.0	-56.0	17.9825
-56.0	-55.0	16.5125
-56.0	-54.0	7.3849
-56.0	-53.0	8.5613
-56.0	-52.0	11.7638
-56.0	-51.0	11.1339
-56.0	-50.0	9.5409
-56.0	-49.0	7.6752
-56.0	-48.0	4.3807
-56.0	-47.0	2.4587
-56.0	-46.0	1.1606
-56.0	-45.0	1.1791
-56.0	-44.0	1.7409
-56.0	-43.0	2.2781
-56.0	-42.0	3.1444
-56.0	-41.0	6.2069
-56.0	-40.0	10.1232
-56.0	-39.0	11.1074
-56.0	-38.0	11.4542
-56.0	-37.0	12.7869
-56.0	-36.0	13.4417
-56.0	-35.0	14.1155
-56.0	-34.0	16.0712
-56.0	-33.0	16.3438
-56.0	-32.0	15.8262
-56.0	-31.0	14.9787
-56.0	-30.0	13.4801
-56.0	-29.0	11.9797
-56.0	-28.0	11.8024
-56.0	-27.0	12.1789
-56.0	-26.0	11.3648
-56.0	-25.0	10.3832
-56.0	-24.0	8.6572
-56.0	-23.0	9.519
-56.0	-22.0	9.6013
-56.0	-21.0	9.0958
-56.0	-20.0	8.9086
-56.0	-19.0	8.8058
-56.0	-18.0	7.7745
-56.0	-17.0	6.3209
-56.0	-16.0	3.8895
-56.0	-15.0	0.8554
-56.0	-14.0	-0.1037
-56.0	-13.0	-2.0366
-56.0	-12.0	-4.6119
-56.0	-11.0	-10.392
-56.0	-10.0	-7.352
-56.0	-9.0	-8.7249
-56.0	-8.0	-10.2863
-56.0	-7.0	-13.231
-56.0	-6.0	-15.5673
-56.0	-5.0	-17.7852
-56.0	-4.0	-19.4162
-56.0	-3.0	-18.0704
-56.0	-2.0	-18.8105
-56.0	-1.0	-22.9393
-56.0	0.0	-23.4352
-56.0	1.0	-23.2652
-56.0	2.0	-23.6067
-56.0	3.0	-25.8248
-56.0	4.0	-29.6882
-56.0	5.0	-32.368
-56.0	6.0	-31.7265
-56.0	7.0	-31.0452
-56.0	8.0	-36.3764
-56.0	9.0	-41.7971
-56.0	10.0	-45.3614
-56.0	11.0	-46.5492
-56.0	12.0	-46.4586
-56.0	13.0	-45.8024
-56.0	14.0	-47.1947
-56.0	15.0	-48.8492
-56.0	16.0	-45.1321
-56.0	17.0	-47.0731
-56.0	18.0	-44.9867
-56.0	19.0	-44.6762
-56.0	20.0	-44.1739
-56.0	21.0	-43.066
-56.0	22.0	-43.3727
-56.0	23.0	-43.5718
-56.0	24.0	-43.4894
-56.0	25.0	-42.7644
-56.0	26.0	-41.5419
-56.0	27.0	-40.2411
-56.0	28.0	-38.1379
-56.0	29.0	-36.0221
-56.0	30.0	-34.2094
-56.0	31.0	-32.5178
-56.0	32.0	-30.6183
-56.0	33.0	-28.6911
-56.0	34.0	-27.3167
-56.0	35.0	-24.959
-56.0	36.0	-23.1064
-56.0	37.0	-21.4024
-56.0	38.0	-20.0897
-56.0	39.0	-19.2411
-56.0	40.0	-17.9266
-56.0	41.0	-15.5796
-56.0	42.0	-12.2575
-56.0	43.0	-9.012
-56.0	44.0	-7.7399
-56.0	45.0	-3.147
-56.0	46.0	-1.1255
-56.0	47.0	0.4215
-56.0	48.0	2.5851
-56.0	49.0	5.0999
-56.0	50.0	4.8077
-56.0	51.0	3.4953
-56.0	52.0	4.6214
-56.0	53.0	7.3407
-56.0	54.0	6.4007
-56.0	55.0	8.2176
-56.0	56.0	8.6422
-56.0	57.0	11.1003
-56.0	58.0	11.8411
-56.0	59.0	13.295
-56.0	60.0	14.5991
-56.0	61.0	16.5862
-56.0	62.0	17.8995
-56.0	63.0	18.693
-56.0	64.0	21.4075
-56.0	65.0	23.2706
-56.0	66.0	25.2435
-56.0	67.0	25.3908
-56.0	68.0	26.3232
-56.0	69.0	28.0313
-56.0	70.0	28.0043
-56.0	71.0	28.5725
-56.0	72.0	26.0436
-56.0	73.0	23.6661
-56.0	74.0	24.211
-56.0	75.0	23.6462
-56.0	76.0	25.841
-56.0	77.0	27.2461
-56.0	78.0	29.3857
-56.0	79.0	26.7866
-56.0	80.0	23.5378
-56.0	81.0	21.3368
-56.0	82.0	17.9439
-56.0	83.0	20.9451
-56.0	84.0	23.7441
-56.0	85.0	21.6119
-56.0	86.0	22.1086
-56.0	87.0	20.1171
-56.0	88.0	18.5592
-56.0	89.0	16.0077
-56.0	90.0	15.47
-55.0	-90.0	-29.41
-55.0	-89.0	-28.3429
-55.0	-88.0	-26.7528
-55.0	-87.0	-24.5971
-55.0	-86.0	-23.1445
-55.0	-85.0	-24.9012
-55.0	-84.0	-25.081
-55.0	-83.0	-22.725
-55.0	-82.0	-24.2782
-55.0	-81.0	-23.9574
-55.0	-80.0	-21.1102
-55.0	-79.0	-20.4122
-55.0	-78.0	-18.7338
-55.0	-77.0	-16.1132
-55.0	-76.0	-12.6041
-55.0	-75.0	-8.9948
-55.0	-74.0	-4.71
-55.0	-73.0	-1.3923
-55.0	-72.0	2.3151
-55.0	-71.0	1.6807
-55.0	-70.0	1.1572
-55.0	-69.0	5.2507
-55.0	-68.0	8.6487
-55.0	-67.0	11.665
-55.0	-66.0	16.7315
-55.0	-65.0	18.9721
-55.0	-64.0	20.7718
-55.0	-63.0	23.6072
-55.0	-62.0	23.2823
-55.0	-61.0	24.1406
-55.0	-60.0	21.0505
-55.0	-59.0	21.3301
-55.0	-58.0	20.5292
-55.0	-57.0	19.4629
-55.0	-56.0	18.8076
-55.0	-55.0	14.7252
-55.0	-54.0	6.8528
-55.0	-53.0	6.804
-55.0	-52.0	10.5085
-55.0	-51.0	10.2601
-55.0	-50.0	8.196
-55.0	-49.0	6.076
-55.0	-48.0	3.2728
-55.0	-47.0	0.9482
-55.0	-46.0	0.6348
-55.0	-45.0	0.8502
-55.0	-44.0	1.2445
-55.0	-43.0	1.225
-55.0	-42.0	1.8996
-55.0	-41.0	3.151
-55.0	-40.0	6.1609
-55.0	-39.0	8.3953
-55.0	-38.0	9.0307
-55.0	-37.0	10.4388
-55.0	-36.0	12.0766
-55.0	-35.0	13.1012
-55.0	-34.0	15.2524
-55.0	-33.0	15.5384
-55.0	-32.0	14.9189
-55.0	-31.0	14.2865
-55.0	-30.0	11.8972
-55.0	-29.0	11.074
-55.0	-28.0	9.2387
-55.0	-27.0	8.3179
-55.0	-26.0	7.6238
-55.0	-25.0	6.7128
-55.0	-24.0	5.5978
-55.0	-23.0	4.6611
-55.0	-22.0	4.4825
-55.0	-21.0	4.123
-55.0	-20.0	3.9636
-55.0	-19.0	4.5822
-55.0	-18.0	3.2906
-55.0	-17.0	2.4379
-55.0	-16.0	1.2517
-55.0	-15.0	-0.9741
-55.0	-14.0	-3.8999
-55.0	-13.0	-3.7784
-55.0	-12.0	-7.4776
-55.0	-11.0	-9.884
-55.0	-10.0	-9.95
-55.0	-9.0	-11.4969
-55.0	-8.0	-13.7652
-55.0	-7.0	-16.6464
-55.0	-6.0	-18.2873
-55.0	-5.0	-19.8561
-55.0	-4.0	-20.1424
-55.0	-3.0	-17.4303
-55.0	-2.0	-22.4124
-55.0	-1.0	-23.2396
-55.0	0.0	-23.3119
-55.0	1.0	-24.139
-55.0	2.0	-25.1185
-55.0	3.0	-27.6521
-55.0	4.0	-30.8416
-55.0	5.0	-33.7374
-55.0	6.0	-32.1016
-55.0	7.0	-32.4066
-55.0	8.0	-37.8633
-55.0	9.0	-43.541
-55.0	10.0	-44.4917
-55.0	11.0	-45.41
-55.0	12.0	-45.3669
-55.0	13.0	-45.1216
-55.0	14.0	-46.7343
-55.0	15.0	-48.3077
-55.0	16.0	-46.5949
-55.0	17.0	-46.0389
-55.0	18.0	-43.4489
-55.0	19.0	-42.3142
-55.0	20.0	-41.8324
-55.0	21.0	-41.9738
-55.0	22.0	-41.3677
-55.0	23.0	-41.1376
-55.0	24.0	-40.8066
-55.0	25.0	-40.3195
-55.0	26.0	-39.1989
-55.0	27.0	-37.8019
-55.0	28.0	-35.7713
-55.0	29.0	-33.8411
-55.0	30.0	-31.9749
-55.0	31.0	-30.203
-55.0	32.0	-28.3659
-55.0	33.0	-26.4417
-55.0	34.0	-24.7795
-55.0	35.0	-22.5824
-55.0	36.0	-20.6133
-55.0	37.0	-19.0814
-55.0	38.0	-17.616
-55.0	39.0	-16.0966
-55.0	40.0	-14.6439
-55.0	41.0	-12.3169
-55.0	42.0	-9.5809
-55.0	43.0	-7.5353
-55.0	44.0	-5.646
-55.0	45.0	-0.8472
-55.0	46.0	2.0543
-55.0	47.0	3.7537
-55.0	48.0	5.6907
-55.0	49.0	7.738
-55.0	50.0	8.41
-55.0	51.0	9.1311
-55.0	52.0	8.9158
-55.0	53.0	10.7378
-55.0	54.0	10.7126
-55.0	55.0	13.0976
-55.0	56.0	11.773
-55.0	57.0	13.7715
-55.0	58.0	14.5006
-55.0	59.0	15.5251
-55.0	60.0	17.1957
-55.0	61.0	19.1999
-55.0	62.0	20.425
-55.0	63.0	20.6892
-55.0	64.0	23.3102
-55.0	65.0	26.2593
-55.0	66.0	27.8814
-55.0	67.0	26.801
-55.0	68.0	25.6995
-55.0	69.0	26.6584
-55.0	70.0	28.3078
-55.0	71.0	29.2785
-55.0	72.0	27.6911
-55.0	73.0	25.039
-55.0	74.0	25.8226
-55.0	75.0	25.2802
-55.0	76.0	27.3211
-55.0	77.0	28.2193
-55.0	78.0	29.8233
-55.0	79.0	27.2955
-55.0	80.0	24.4671
-55.0	81.0	22.0889
-55.0	82.0	18.3771
-55.0	83.0	21.0304
-55.0	84.0	24.1463
-55.0	85.0	21.4754
-55.0	86.0	21.9604
-55.0	87.0	20.0915
-55.0	88.0	18.5031
-55.0	89.0	15.9972
-55.0	90.0	15.47
-54.0	-90.0	-29.41
-54.0	-89.0	-28.3567
-54.0	-88.0	-26.7876
-54.0	-87.0	-24.8648
-54.0	-86.0	-23.4827
-54.0	-85.0	-24.7204
-54.0	-84.0	-24.5531
-54.0	-83.0	-22.1005
-54.0	-82.0	-23.6908
-54.0	-81.0	-23.6082
-54.0	-80.0	-20.6381
-54.0	-79.0	-19.9076
-54.0	-78.0	-18.3243
-54.0	-77.0	-15.8538
-54.0	-76.0	-12.4304
-54.0	-75.0	-8.373
-54.0	-74.0	-3.8884
-54.0	-73.0	-0.2618
-54.0	-72.0	2.5015
-54.0	-71.0	0.6625
-54.0	-70.0	-0.1871
-54.0	-69.0	4.147
-54.0	-68.0	7.2749
-54.0	-67.0	9.5241
-54.0	-66.0	14.871
-54.0	-65.0	16.954
-54.0	-64.0	19.6775
-54.0	-63.0	23.5658
-54.0	-62.0	23.972
-54.0	-61.0	24.5481
-54.0	-60.0	21.5039
-54.0	-59.0	21.0625
-54.0	-58.0	20.403
-54.0	-57.0	18.8514
-54.0	-56.0	18.019
-54.0	-55.0	13.9099
-54.0	-54.0	9.0004
-54.0	-53.0	5.4295
-54.0	-52.0	9.4867
-54.0	-51.0	10.1454
-54.0	-50.0	6.682
-54.0	-49.0	3.9862
-54.0	-48.0	1.7277
-54.0	-47.0	-0.0949
-54.0	-46.0	-0.0093
-54.0	-45.0	0.3487
-54.0	-44.0	0.4109
-54.0	-43.0	0.4359
-54.0	-42.0	0.7313
-54.0	-41.0	1.4886
-54.0	-40.0	2.6564
-54.0	-39.0	4.2735
-54.0	-38.0	5.0928
-54.0	-37.0	8.928
-54.0	-36.0	9.8499
-54.0	-35.0	10.7727
-54.0	-34.0	13.085
-54.0	-33.0	13.6441
-54.0	-32.0	13.44
-54.0	-31.0	13.4567
-54.0	-30.0	10.6372
-54.0	-29.0	10.1836
-54.0	-28.0	8.8392
-54.0	-27.0	6.4962
-54.0	-26.0	5.2144
-54.0	-25.0	4.66
-54.0	-24.0	2.695
-54.0	-23.0	0.2351
-54.0	-22.0	-0.3495
-54.0	-21.0	-0.5796
-54.0	-20.0	-0.4168
-54.0	-19.0	-0.9156
-54.0	-18.0	-0.8825
-54.0	-17.0	-0.4327
-54.0	-16.0	-2.2057
-54.0	-15.0	-3.2386
-54.0	-14.0	-5.7017
-54.0	-13.0	-5.6154
-54.0	-12.0	-8.0684
-54.0	-11.0	-10.5644
-54.0	-10.0	-12.402
-54.0	-9.0	-14.7058
-54.0	-8.0	-15.9905
-54.0	-7.0	-17.8172
-54.0	-6.0	-19.8519
-54.0	-5.0	-21.4232
-54.0	-4.0	-21.849
-54.0	-3.0	-19.2333
-54.0	-2.0	-21.889
-54.0	-1.0	-23.8041
-54.0	0.0	-24.8736
-54.0	1.0	-25.8363
-54.0	2.0	-27.2599
-54.0	3.0	-30.3951
-54.0	4.0	-32.1539
-54.0	5.0	-33.0327
-54.0	6.0	-31.2781
-54.0	7.0	-32.5943
-54.0	8.0	-37.1166
-54.0	9.0	-41.1202
-54.0	10.0	-44.1923
-54.0	11.0	-44.7539
-54.0	12.0	-44.4264
-54.0	13.0	-44.0984
-54.0	14.0	-45.2245
-54.0	15.0	-46.4035
-54.0	16.0	-45.5
-54.0	17.0	-43.5763
-54.0	18.0	-41.2377
-54.0	19.0	-40.7454
-54.0	20.0	-40.4868
-54.0	21.0	-40.0453
-54.0	22.0	-39.6358
-54.0	23.0	-38.6917
-54.0	24.0	-38.147
-54.0	25.0	-37.7143
-54.0	26.0	-35.8307
-54.0	27.0	-34.7995
-54.0	28.0	-33.02
-54.0	29.0	-31.4562
-54.0	30.0	-29.5877
-54.0	31.0	-27.7009
-54.0	32.0	-25.8587
-54.0	33.0	-24.201
-54.0	34.0	-21.8172
-54.0	35.0	-19.7277
-54.0	36.0	-17.7951
-54.0	37.0	-16.2683
-54.0	38.0	-14.5553
-54.0	39.0	-13.0827
-54.0	40.0	-11.2125
-54.0	41.0	-9.1874
-54.0	42.0	-7.3762
-54.0	43.0	-5.8449
-54.0	44.0	-2.3731
-54.0	45.0	4.0154
-54.0	46.0	4.8576
-54.0	47.0	7.163
-54.0	48.0	8.3557
-54.0	49.0	9.7564
-54.0	50.0	11.1899
-54.0	51.0	11.6677
-54.0	52.0	12.395
-54.0	53.0	12.7814
-54.0	54.0	13.9226
-54.0	55.0	15.6316
-54.0	56.0	14.8029
-54.0	57.0	16.2397
-54.0	58.0	17.532
-54.0	59.0	18.0661
-54.0	60.0	19.8301
-54.0	61.0	21.568
-54.0	62.0	22.471
-54.0	63.0	23.1293
-54.0	64.0	25.817
-54.0	65.0	28.6742
-54.0	66.0	28.7877
-54.0	67.0	27.3931
-54.0	68.0	25.9478
-54.0	69.0	24.1101
-54.0	70.0	28.5098
-54.0	71.0	28.8709
-54.0	72.0	29.2141
-54.0	73.0	26.5487
-54.0	74.0	27.4854
-54.0	75.0	27.191
-54.0	76.0	28.5749
-54.0	77.0	28.9584
-54.0	78.0	30.1179
-54.0	79.0	27.6694
-54.0	80.0	25.4223
-54.0	81.0	22.845
-54.0	82.0	18.4845
-54.0	83.0	21.2029
-54.0	84.0	24.5301
-54.0	85.0	21.2654
-54.0	86.0	21.7404
-54.0	87.0	20.0352
-54.0	88.0	18.4621
-54.0	89.0	15.9864
-54.0	90.0	15.47
-53.0	-90.0	-29.41
-53.0	-89.0	-28.3714
-53.0	-88.0	-26.825
-53.0	-87.0	-25.144
-53.0	-86.0	-23.8379
-53.0	-85.0	-24.503
-53.0	-84.0	-23.9756
-53.0	-83.0	-21.515
-53.0	-82.0	-23.0897
-53.0	-81.0	-23.1888
-53.0	-80.0	-20.064
-53.0	-79.0	-19.2886
-53.0	-78.0	-17.8485
-53.0	-77.0	-15.5263
-53.0	-76.0	-12.3287
-53.0	-75.0	-7.6315
-53.0	-74.0	-3.1164
-53.0	-73.0	0.6243
-53.0	-72.0	2.1435
-53.0	-71.0	0.1361
-53.0	-70.0	-0.5867
-53.0	-69.0	3.6215
-53.0	-68.0	6.6401
-53.0	-67.0	8.6561
-53.0	-66.0	13.3209
-53.0	-65.0	14.4031
-53.0	-64.0	18.0238
-53.0	-63.0	22.8798
-53.0	-62.0	22.1817
-53.0	-61.0	23.3971
-53.0	-60.0	21.923
-53.0	-59.0	21.1564
-53.0	-58.0	20.3271
-53.0	-57.0	19.4053
-53.0	-56.0	17.6253
-53.0	-55.0	14.4567
-53.0	-54.0	12.4356
-53.0	-53.0	5.3196
-53.0	-52.0	8.0086
-53.0	-51.0	9.0414
-53.0	-50.0	4.9184
-53.0	-49.0	0.8962
-53.0	-48.0	0.598
-53.0	-47.0	-1.0278
-53.0	-46.0	-1.0402
-53.0	-45.0	-0.6865
-53.0	-44.0	-0.6069
-53.0	-43.0	-0.5436
-53.0	-42.0	-0.2367
-53.0	-41.0	0.0836
-53.0	-40.0	0.758
-53.0	-39.0	1.7916
-53.0	-38.0	2.666
-53.0	-37.0	4.8735
-53.0	-36.0	8.0093
-53.0	-35.0	9.1582
-53.0	-34.0	9.8289
-53.0	-33.0	11.3314
-53.0	-32.0	11.1793
-53.0	-31.0	11.4475
-53.0	-30.0	9.3592
-53.0	-29.0	9.1542
-53.0	-28.0	8.5063
-53.0	-27.0	5.7084
-53.0	-26.0	4.0151
-53.0	-25.0	2.8773
-53.0	-24.0	0.9187
-53.0	-23.0	-0.95
-53.0	-22.0	-2.5311
-53.0	-21.0	-3.5289
-53.0	-20.0	-4.4208
-53.0	-19.0	-3.5353
-53.0	-18.0	-2.2995
-53.0	-17.0	-2.7075
-53.0	-16.0	-4.0749
-53.0	-15.0	-4.8503
-53.0	-14.0	-7.7131
-53.0	-13.0	-8.2781
-53.0	-12.0	-9.8261
-53.0	-11.0	-11.3915
-53.0	-10.0	-13.4104
-53.0	-9.0	-15.2726
-53.0	-8.0	-16.5716
-53.0	-7.0	-18.6668
-53.0	-6.0	-21.0994
-53.0	-5.0	-21.8738
-53.0	-4.0	-23.7295
-53.0	-3.0	-22.1459
-53.0	-2.0	-22.6321
-53.0	-1.0	-23.7467
-53.0	0.0	-25.3651
-53.0	1.0	-26.6375
-53.0	2.0	-28.0312
-53.0	3.0	-30.4436
-53.0	4.0	-32.786
-53.0	5.0	-33.9216
-53.0	6.0	-31.9728
-53.0	7.0	-33.8342
-53.0	8.0	-38.1942
-53.0	9.0	-43.1568
-53.0	10.0	-44.3721
-53.0	11.0	-44.7109
-53.0	12.0	-44.1636
-53.0	13.0	-43.7062
-53.0	14.0	-43.8262
-53.0	15.0	-43.8577
-53.0	16.0	-43.6883
-53.0	17.0	-41.6348
-53.0	18.0	-40.0705
-53.0	19.0	-39.956
-53.0	20.0	-39.3701
-53.0	21.0	-38.0952
-53.0	22.0	-37.9152
-53.0	23.0	-36.2973
-53.0	24.0	-35.8776
-53.0	25.0	-35.0238
-53.0	26.0	-33.1308
-53.0	27.0	-32.1842
-53.0	28.0	-30.4211
-53.0	29.0	-28.6495
-53.0	30.0	-26.9773
-53.0	31.0	-25.332
-53.0	32.0	-23.3432
-53.0	33.0	-21.1239
-53.0	34.0	-19.1306
-53.0	35.0	-17.1054
-53.0	36.0	-15.2931
-53.0	37.0	-12.8912
-53.0	38.0	-10.9898
-53.0	39.0	-9.7797
-53.0	40.0	-8.2787
-53.0	41.0	-6.5901
-53.0	42.0	-5.1382
-53.0	43.0	-1.7124
-53.0	44.0	3.2732
-53.0	45.0	6.7134
-53.0	46.0	8.0526
-53.0	47.0	9.0118
-53.0	48.0	9.9999
-53.0	49.0	12.458
-53.0	50.0	13.0854
-53.0	51.0	13.8359
-53.0	52.0	14.8429
-53.0	53.0	15.4904
-53.0	54.0	15.8826
-53.0	55.0	16.1973
-53.0	56.0	17.4043
-53.0	57.0	19.0617
-53.0	58.0	19.4554
-53.0	59.0	21.4359
-53.0	60.0	22.4271
-53.0	61.0	23.9659
-53.0	62.0	24.1194
-53.0	63.0	25.2081
-53.0	64.0	28.8199
-53.0	65.0	28.0945
-53.0	66.0	30.3726
-53.0	67.0	29.1834
-53.0	68.0	26.733
-53.0	69.0	22.9554
-53.0	70.0	26.8309
-53.0	71.0	27.1823
-53.0	72.0	30.6614
-53.0	73.0	28.9551
-53.0	74.0	28.8915
-53.0	75.0	28.9489
-53.0	76.0	29.4625
-53.0	77.0	29.7632
-53.0	78.0	30.2679
-53.0	79.0	28.054
-53.0	80.0	26.3836
-53.0	81.0	23.6003
-53.0	82.0	18.9161
-53.0	83.0	21.4838
-53.0	84.0	24.8574
-53.0	85.0	21.0231
-53.0	86.0	21.4833
-53.0	87.0	19.9677
-53.0	88.0	18.4238
-53.0	89.0	15.9771
-53.0	90.0	15.47
-52.0	-90.0	-29.41
-52.0	-89.0	-28.3872
-52.0	-88.0	-26.8638
-52.0	-87.0	-25.4247
-52.0	-86.0	-24.1932
-52.0	-85.0	-24.2576
-52.0	-84.0	-23.3899
-52.0	-83.0	-20.9909
-52.0	-82.0	-22.5018
-52.0	-81.0	-22.7196
-52.0	-80.0	-19.4227
-52.0	-79.0	-18.5859
-52.0	-78.0	-17.3094
-52.0	-77.0	-15.1198
-52.0	-76.0	-11.9058
-52.0	-75.0	-6.9889
-52.0	-74.0	-2.452
-52.0	-73.0	1.3084
-52.0	-72.0	1.8543
-52.0	-71.0	-0.02
-52.0	-70.0	-0.5652
-52.0	-69.0	3.6588
-52.0	-68.0	6.5226
-52.0	-67.0	8.6206
-52.0	-66.0	11.9923
-52.0	-65.0	13.2451
-52.0	-64.0	16.886
-52.0	-63.0	21.8015
-52.0	-62.0	21.6115
-52.0	-61.0	23.1922
-52.0	-60.0	21.7902
-52.0	-59.0	21.1255
-52.0	-58.0	19.9922
-52.0	-57.0	19.6645
-52.0	-56.0	17.8692
-52.0	-55.0	15.1176
-52.0	-54.0	14.166
-52.0	-53.0	6.1075
-52.0	-52.0	6.9226
-52.0	-51.0	7.5119
-52.0	-50.0	3.9018
-52.0	-49.0	0.3573
-52.0	-48.0	-0.3841
-52.0	-47.0	-1.704
-52.0	-46.0	-1.9577
-52.0	-45.0	-1.7873
-52.0	-44.0	-1.3366
-52.0	-43.0	-1.2024
-52.0	-42.0	-0.9327
-52.0	-41.0	-0.7649
-52.0	-40.0	-0.1234
-52.0	-39.0	0.2122
-52.0	-38.0	1.1317
-52.0	-37.0	2.697
-52.0	-36.0	4.6635
-52.0	-35.0	8.1945
-52.0	-34.0	9.0375
-52.0	-33.0	8.5456
-52.0	-32.0	8.7195
-52.0	-31.0	8.7918
-52.0	-30.0	6.8181
-52.0	-29.0	7.7104
-52.0	-28.0	7.8044
-52.0	-27.0	7.5114
-52.0	-26.0	5.4313
-52.0	-25.0	2.5626
-52.0	-24.0	-1.0204
-52.0	-23.0	-2.0791
-52.0	-22.0	-3.9781
-52.0	-21.0	-5.2739
-52.0	-20.0	-5.8603
-52.0	-19.0	-5.1236
-52.0	-18.0	-3.7594
-52.0	-17.0	-3.8116
-52.0	-16.0	-4.6308
-52.0	-15.0	-5.8576
-52.0	-14.0	-9.3112
-52.0	-13.0	-8.6239
-52.0	-12.0	-11.1625
-52.0	-11.0	-12.3616
-52.0	-10.0	-13.7255
-52.0	-9.0	-15.1707
-52.0	-8.0	-15.6105
-52.0	-7.0	-18.734
-52.0	-6.0	-20.9696
-52.0	-5.0	-21.4579
-52.0	-4.0	-23.6831
-52.0	-3.0	-23.311
-52.0	-2.0	-23.2257
-52.0	-1.0	-23.8371
-52.0	0.0	-24.626
-52.0	1.0	-26.2069
-52.0	2.0	-27.544
-52.0	3.0	-29.9713
-52.0	4.0	-32.7582
-52.0	5.0	-33.5967
-52.0	6.0	-31.9526
-52.0	7.0	-38.671
-52.0	8.0	-42.5424
-52.0	9.0	-43.4233
-52.0	10.0	-44.1871
-52.0	11.0	-44.4332
-52.0	12.0	-43.4422
-52.0	13.0	-43.0459
-52.0	14.0	-42.6091
-52.0	15.0	-41.9922
-52.0	16.0	-41.5201
-52.0	17.0	-39.9763
-52.0	18.0	-38.6959
-52.0	19.0	-38.34
-52.0	20.0	-37.2375
-52.0	21.0	-35.7599
-52.0	22.0	-35.4406
-52.0	23.0	-33.7993
-52.0	24.0	-33.2495
-52.0	25.0	-32.1878
-52.0	26.0	-30.3373
-52.0	27.0	-29.1267
-52.0	28.0	-27.3764
-52.0	29.0	-25.81
-52.0	30.0	-23.9548
-52.0	31.0	-22.3833
-52.0	32.0	-20.3849
-52.0	33.0	-17.9414
-52.0	34.0	-15.8962
-52.0	35.0	-14.5644
-52.0	36.0	-11.6023
-52.0	37.0	-9.9899
-52.0	38.0	-7.8823
-52.0	39.0	-6.3951
-52.0	40.0	-5.1813
-52.0	41.0	-3.5915
-52.0	42.0	-0.3486
-52.0	43.0	4.5797
-52.0	44.0	9.0488
-52.0	45.0	10.3761
-52.0	46.0	10.9319
-52.0	47.0	11.6512
-52.0	48.0	13.2817
-52.0	49.0	15.6134
-52.0	50.0	16.933
-52.0	51.0	16.5357
-52.0	52.0	17.7055
-52.0	53.0	19.3564
-52.0	54.0	18.0559
-52.0	55.0	18.7185
-52.0	56.0	20.161
-52.0	57.0	21.2672
-52.0	58.0	22.941
-52.0	59.0	23.5484
-52.0	60.0	25.0695
-52.0	61.0	25.7544
-52.0	62.0	25.9051
-52.0	63.0	29.0644
-52.0	64.0	28.8789
-52.0	65.0	28.0907
-52.0	66.0	32.2864
-52.0	67.0	30.7131
-52.0	68.0	27.6702
-52.0	69.0	23.2218
-52.0	70.0	25.9259
-52.0	71.0	28.1256
-52.0	72.0	33.0224
-52.0	73.0	31.249
-52.0	74.0	30.7833
-52.0	75.0	30.4069
-52.0	76.0	30.4617
-52.0	77.0	30.5456
-52.0	78.0	30.4483
-52.0	79.0	28.4785
-52.0	80.0	27.1982
-52.0	81.0	24.4085
-52.0	82.0	19.0234
-52.0	83.0	21.7954
-52.0	84.0	25.1462
-52.0	85.0	20.782
-52.0	86.0	21.2265
-52.0	87.0	19.9086
-52.0	88.0	18.3687
-52.0	89.0	15.9712
-52.0	90.0	15.47
-51.0	-90.0	-29.41
-51.0	-89.0	-28.4044
-51.0	-88.0	-26.9032
-51.0	-87.0	-25.7071
-51.0	-86.0	-24.5423
-51.0	-85.0	-23.9762
-51.0	-84.0	-22.7735
-51.0	-83.0	-20.5541
-51.0	-82.0	-21.9522
-51.0	-81.0	-22.2259
-51.0	-80.0	-18.7684
-51.0	-79.0	-17.8301
-51.0	-78.0	-16.7186
-51.0	-77.0	-14.606
-51.0	-76.0	-11.2243
-51.0	-75.0	-6.7196
-51.0	-74.0	-1.9468
-51.0	-73.0	1.8275
-51.0	-72.0	1.5613
-51.0	-71.0	0.0253
-51.0	-70.0	0.0592
-51.0	-69.0	3.9532
-51.0	-68.0	6.6605
-51.0	-67.0	8.6139
-51.0	-66.0	11.5446
-51.0	-65.0	12.875
-51.0	-64.0	16.285
-51.0	-63.0	20.8212
-51.0	-62.0	21.2941
-51.0	-61.0	22.3439
-51.0	-60.0	20.6417
-51.0	-59.0	21.1559
-51.0	-58.0	20.0057
-51.0	-57.0	18.861
-51.0	-56.0	17.697
-51.0	-55.0	15.0352
-51.0	-54.0	12.59
-51.0	-53.0	7.0025
-51.0	-52.0	6.5577
-51.0	-51.0	6.5044
-51.0	-50.0	3.4135
-51.0	-49.0	0.074
-51.0	-48.0	-1.1757
-51.0	-47.0	-2.4167
-51.0	-46.0	-2.7573
-51.0	-45.0	-2.2237
-51.0	-44.0	-1.6222
-51.0	-43.0	-1.48
-51.0	-42.0	-1.389
-51.0	-41.0	-1.3665
-51.0	-40.0	-1.3665
-51.0	-39.0	-1.1462
-51.0	-38.0	-0.6213
-51.0	-37.0	0.1336
-51.0	-36.0	1.7528
-51.0	-35.0	3.7217
-51.0	-34.0	6.1646
-51.0	-33.0	8.8089
-51.0	-32.0	6.3029
-51.0	-31.0	6.4742
-51.0	-30.0	5.1268
-51.0	-29.0	6.9113
-51.0	-28.0	7.0893
-51.0	-27.0	6.6727
-51.0	-26.0	5.5631
-51.0	-25.0	3.1152
-51.0	-24.0	0.3573
-51.0	-23.0	-4.3226
-51.0	-22.0	-5.4354
-51.0	-21.0	-6.4781
-51.0	-20.0	-7.3895
-51.0	-19.0	-7.3319
-51.0	-18.0	-5.8242
-51.0	-17.0	-4.894
-51.0	-16.0	-5.4379
-51.0	-15.0	-7.1868
-51.0	-14.0	-9.9627
-51.0	-13.0	-11.2746
-51.0	-12.0	-14.0865
-51.0	-11.0	-15.8717
-51.0	-10.0	-14.7203
-51.0	-9.0	-15.9193
-51.0	-8.0	-16.5981
-51.0	-7.0	-17.9199
-51.0	-6.0	-18.8837
-51.0	-5.0	-20.6248
-51.0	-4.0	-22.8036
-51.0	-3.0	-21.9258
-51.0	-2.0	-23.1476
-51.0	-1.0	-23.0212
-51.0	0.0	-23.5447
-51.0	1.0	-25.5753
-51.0	2.0	-28.3704
-51.0	3.0	-30.5082
-51.0	4.0	-33.1978
-51.0	5.0	-33.2383
-51.0	6.0	-35.2567
-51.0	7.0	-39.5494
-51.0	8.0	-42.6003
-51.0	9.0	-42.5978
-51.0	10.0	-43.5005
-51.0	11.0	-43.256
-51.0	12.0	-42.7921
-51.0	13.0	-42.1356
-51.0	14.0	-41.5355
-51.0	15.0	-40.6009
-51.0	16.0	-39.3422
-51.0	17.0	-38.2979
-51.0	18.0	-36.9637
-51.0	19.0	-36.4205
-51.0	20.0	-35.0908
-51.0	21.0	-33.5775
-51.0	22.0	-33.0605
-51.0	23.0	-30.7683
-51.0	24.0	-30.0621
-51.0	25.0	-28.8494
-51.0	26.0	-27.1335
-51.0	27.0	-25.779
-51.0	28.0	-24.288
-51.0	29.0	-22.3145
-51.0	30.0	-20.3323
-51.0	31.0	-18.6654
-51.0	32.0	-16.9248
-51.0	33.0	-15.0271
-51.0	34.0	-12.5644
-51.0	35.0	-10.6283
-51.0	36.0	-8.6223
-51.0	37.0	-6.6683
-51.0	38.0	-4.8218
-51.0	39.0	-3.1515
-51.0	40.0	-1.7903
-51.0	41.0	-0.4931
-51.0	42.0	4.2681
-51.0	43.0	10.2719
-51.0	44.0	12.5657
-51.0	45.0	14.571
-51.0	46.0	14.0743
-51.0	47.0	14.7462
-51.0	48.0	16.8571
-51.0	49.0	21.9431
-51.0	50.0	22.4082
-51.0	51.0	20.3626
-51.0	52.0	21.1606
-51.0	53.0	21.1572
-51.0	54.0	21.5118
-51.0	55.0	22.4727
-51.0	56.0	23.3143
-51.0	57.0	24.1767
-51.0	58.0	25.1417
-51.0	59.0	25.8884
-51.0	60.0	27.3907
-51.0	61.0	28.0259
-51.0	62.0	29.046
-51.0	63.0	30.2924
-51.0	64.0	30.223
-51.0	65.0	29.8733
-51.0	66.0	33.5734
-51.0	67.0	31.6801
-51.0	68.0	29.0959
-51.0	69.0	25.5544
-51.0	70.0	27.1321
-51.0	71.0	30.3844
-51.0	72.0	34.4254
-51.0	73.0	32.9802
-51.0	74.0	32.3091
-51.0	75.0	31.3311
-51.0	76.0	31.2008
-51.0	77.0	31.095
-51.0	78.0	30.6882
-51.0	79.0	28.9967
-51.0	80.0	27.7778
-51.0	81.0	25.0312
-51.0	82.0	19.8826
-51.0	83.0	22.152
-51.0	84.0	25.3241
-51.0	85.0	20.6051
-51.0	86.0	21.0053
-51.0	87.0	19.8679
-51.0	88.0	18.2839
-51.0	89.0	15.9708
-51.0	90.0	15.47
-50.0	-90.0	-29.41
-50.0	-89.0	-28.4232
-50.0	-88.0	-26.9439
-50.0	-87.0	-25.9908
-50.0	-86.0	-24.8807
-50.0	-85.0	-23.6666
-50.0	-84.0	-22.1776
-50.0	-83.0	-20.2151
-50.0	-82.0	-21.4564
-50.0	-81.0	-21.732
-50.0	-80.0	-18.1437
-50.0	-79.0	-17.0653
-50.0	-78.0	-16.098
-50.0	-77.0	-14.0146
-50.0	-76.0	-10.5689
-50.0	-75.0	-6.4389
-50.0	-74.0	-1.522
-50.0	-73.0	2.2812
-50.0	-72.0	1.3398
-50.0	-71.0	0.0655
-50.0	-70.0	0.6647
-50.0	-69.0	4.1508
-50.0	-68.0	7.0148
-50.0	-67.0	8.7462
-50.0	-66.0	11.5283
-50.0	-65.0	13.0701
-50.0	-64.0	16.2031
-50.0	-63.0	20.2585
-50.0	-62.0	21.2951
-50.0	-61.0	21.1019
-50.0	-60.0	20.6836
-50.0	-59.0	20.5828
-50.0	-58.0	19.9847
-50.0	-57.0	18.7084
-50.0	-56.0	18.251
-50.0	-55.0	15.1646
-50.0	-54.0	10.7332
-50.0	-53.0	5.5568
-50.0	-52.0	5.8479
-50.0	-51.0	5.9423
-50.0	-50.0	2.7202
-50.0	-49.0	0.0489
-50.0	-48.0	-1.4599
-50.0	-47.0	-3.1925
-50.0	-46.0	-3.2514
-50.0	-45.0	-2.5477
-50.0	-44.0	-1.8437
-50.0	-43.0	-1.6414
-50.0	-42.0	-1.9534
-50.0	-41.0	-2.062
-50.0	-40.0	-2.186
-50.0	-39.0	-2.2442
-50.0	-38.0	-1.9997
-50.0	-37.0	-1.6941
-50.0	-36.0	-1.046
-50.0	-35.0	0.1387
-50.0	-34.0	2.3941
-50.0	-33.0	4.9879
-50.0	-32.0	5.2097
-50.0	-31.0	4.9816
-50.0	-30.0	3.297
-50.0	-29.0	5.0876
-50.0	-28.0	6.4748
-50.0	-27.0	4.4299
-50.0	-26.0	4.4141
-50.0	-25.0	4.677
-50.0	-24.0	0.219
-50.0	-23.0	-4.6859
-50.0	-22.0	-5.959
-50.0	-21.0	-6.8816
-50.0	-20.0	-7.387
-50.0	-19.0	-7.0402
-50.0	-18.0	-7.2238
-50.0	-17.0	-7.4816
-50.0	-16.0	-7.3532
-50.0	-15.0	-9.2614
-50.0	-14.0	-10.1743
-50.0	-13.0	-13.2163
-50.0	-12.0	-16.8639
-50.0	-11.0	-18.437
-50.0	-10.0	-18.5521
-50.0	-9.0	-19.517
-50.0	-8.0	-20.5059
-50.0	-7.0	-19.8675
-50.0	-6.0	-19.0399
-50.0	-5.0	-20.8224
-50.0	-4.0	-23.3339
-50.0	-3.0	-22.7235
-50.0	-2.0	-23.0199
-50.0	-1.0	-24.9177
-50.0	0.0	-25.3935
-50.0	1.0	-26.5594
-50.0	2.0	-28.5106
-50.0	3.0	-30.7902
-50.0	4.0	-31.8497
-50.0	5.0	-36.1658
-50.0	6.0	-38.1164
-50.0	7.0	-39.8835
-50.0	8.0	-41.4342
-50.0	9.0	-41.7951
-50.0	10.0	-42.1736
-50.0	11.0	-42.0694
-50.0	12.0	-42.0051
-50.0	13.0	-40.8
-50.0	14.0	-39.8349
-50.0	15.0	-37.309
-50.0	16.0	-36.9082
-50.0	17.0	-35.2638
-50.0	18.0	-34.662
-50.0	19.0	-33.8127
-50.0	20.0	-32.3076
-50.0	21.0	-30.6579
-50.0	22.0	-29.9777
-50.0	23.0	-28.1883
-50.0	24.0	-27.3093
-50.0	25.0	-25.8145
-50.0	26.0	-23.9169
-50.0	27.0	-22.2842
-50.0	28.0	-20.4208
-50.0	29.0	-18.8204
-50.0	30.0	-17.1149
-50.0	31.0	-15.049
-50.0	32.0	-13.4313
-50.0	33.0	-11.3457
-50.0	34.0	-8.832
-50.0	35.0	-7.4827
-50.0	36.0	-5.1866
-50.0	37.0	-3.505
-50.0	38.0	-1.9138
-50.0	39.0	-0.1939
-50.0	40.0	1.4118
-50.0	41.0	3.9177
-50.0	42.0	6.3243
-50.0	43.0	14.1872
-50.0	44.0	16.2503
-50.0	45.0	17.6885
-50.0	46.0	18.2114
-50.0	47.0	17.6787
-50.0	48.0	20.807
-50.0	49.0	23.9953
-50.0	50.0	24.5443
-50.0	51.0	24.1252
-50.0	52.0	22.5802
-50.0	53.0	23.2246
-50.0	54.0	24.1547
-50.0	55.0	25.6061
-50.0	56.0	26.5081
-50.0	57.0	27.2069
-50.0	58.0	27.5352
-50.0	59.0	28.3412
-50.0	60.0	29.215
-50.0	61.0	29.4678
-50.0	62.0	31.5695
-50.0	63.0	32.7491
-50.0	64.0	32.9073
-50.0	65.0	33.3605
-50.0	66.0	34.2909
-50.0	67.0	33.6398
-50.0	68.0	31.7571
-50.0	69.0	28.367
-50.0	70.0	29.411
-50.0	71.0	32.6116
-50.0	72.0	35.0152
-50.0	73.0	34.6328
-50.0	74.0	33.3514
-50.0	75.0	32.2727
-50.0	76.0	31.8367
-50.0	77.0	31.3536
-50.0	78.0	30.9457
-50.0	79.0	29.5493
-50.0	80.0	28.2096
-50.0	81.0	25.4461
-50.0	82.0	20.7241
-50.0	83.0	22.582
-50.0	84.0	25.4712
-50.0	85.0	20.5529
-50.0	86.0	20.8303
-50.0	87.0	19.8516
-50.0	88.0	18.1732
-50.0	89.0	15.9782
-50.0	90.0	15.47
-49.0	-90.0	-29.41
-49.0	-89.0	-28.444
-49.0	-88.0	-26.9873
-49.0	-87.0	-26.2633
-49.0	-86.0	-25.1925
-49.0	-85.0	-23.3194
-49.0	-84.0	-21.5987
-49.0	-83.0	-19.8606
-49.0	-82.0	-21.0246
-49.0	-81.0	-21.2609
-49.0	-80.0	-17.5895
-49.0	-79.0	-16.3513
-49.0	-78.0	-15.4928
-49.0	-77.0	-13.2272
-49.0	-76.0	-9.9224
-49.0	-75.0	-6.3209
-49.0	-74.0	-1.1067
-49.0	-73.0	2.6412
-49.0	-72.0	1.2714
-49.0	-71.0	-0.0608
-49.0	-70.0	0.9697
-49.0	-69.0	4.3943
-49.0	-68.0	7.1644
-49.0	-67.0	9.1174
-49.0	-66.0	11.5264
-49.0	-65.0	13.7854
-49.0	-64.0	17.0622
-49.0	-63.0	19.9653
-49.0	-62.0	21.17
-49.0	-61.0	21.419
-49.0	-60.0	19.7946
-49.0	-59.0	20.965
-49.0	-58.0	19.8493
-49.0	-57.0	19.111
-49.0	-56.0	18.3478
-49.0	-55.0	15.7382
-49.0	-54.0	10.9354
-49.0	-53.0	3.2349
-49.0	-52.0	5.7007
-49.0	-51.0	6.202
-49.0	-50.0	2.7374
-49.0	-49.0	-0.1046
-49.0	-48.0	-1.7984
-49.0	-47.0	-3.5324
-49.0	-46.0	-3.6333
-49.0	-45.0	-2.8725
-49.0	-44.0	-1.9139
-49.0	-43.0	-1.9195
-49.0	-42.0	-2.3768
-49.0	-41.0	-2.6565
-49.0	-40.0	-3.0345
-49.0	-39.0	-3.0571
-49.0	-38.0	-2.8621
-49.0	-37.0	-2.7389
-49.0	-36.0	-2.8802
-49.0	-35.0	-2.6245
-49.0	-34.0	-0.7295
-49.0	-33.0	-0.0738
-49.0	-32.0	-0.408
-49.0	-31.0	1.2657
-49.0	-30.0	3.6183
-49.0	-29.0	2.2455
-49.0	-28.0	2.5107
-49.0	-27.0	1.3531
-49.0	-26.0	3.3104
-49.0	-25.0	2.9207
-49.0	-24.0	-0.6602
-49.0	-23.0	-4.4461
-49.0	-22.0	-5.9901
-49.0	-21.0	-6.7524
-49.0	-20.0	-7.0917
-49.0	-19.0	-9.5462
-49.0	-18.0	-11.1905
-49.0	-17.0	-10.8079
-49.0	-16.0	-10.2153
-49.0	-15.0	-11.9185
-49.0	-14.0	-11.5327
-49.0	-13.0	-12.3402
-49.0	-12.0	-14.4313
-49.0	-11.0	-17.1015
-49.0	-10.0	-18.3599
-49.0	-9.0	-20.6214
-49.0	-8.0	-23.3272
-49.0	-7.0	-23.7876
-49.0	-6.0	-23.2752
-49.0	-5.0	-24.0252
-49.0	-4.0	-25.3745
-49.0	-3.0	-23.9695
-49.0	-2.0	-24.7153
-49.0	-1.0	-25.0859
-49.0	0.0	-26.3877
-49.0	1.0	-27.4368
-49.0	2.0	-28.9443
-49.0	3.0	-28.9291
-49.0	4.0	-29.2696
-49.0	5.0	-34.7171
-49.0	6.0	-37.8003
-49.0	7.0	-39.7291
-49.0	8.0	-41.0911
